# .PCD v0.7 - Point Cloud Data file format
VERSION 0.7
FIELDS x y z
SIZE 4 4 4
TYPE F F F
COUNT 1 1 1
WIDTH 1448
HEIGHT 1
VIEWPOINT 0 0 0 1 0 0 0
POINTS 1448
DATA ascii
-6.4240003 1.29729 0.57488
-6.4240003 1.6972899 0.27487999
-6.4740005 1.6972899 0.37487999
-6.4240003 1.6972899 0.37487999
-6.2740002 1.6972899 0.27487999
-6.2240005 1.79729 0.37487999
-6.2740002 1.74729 0.47487998
-6.2740002 1.74729 0.52487999
-6.2240005 1.79729 0.47487998
-6.3240004 1.74729 0.77487999
-6.2740002 1.74729 0.57488
-6.2240005 1.74729 0.62488002
-6.1740003 1.79729 0.62488002
-6.8240004 2.0472901 -0.47512004
-6.7240005 2.09729 -0.47512004
-6.6240001 2.0472901 -0.57512003
-6.6240001 2.09729 -0.47512004
-6.5740004 2.14729 -0.47512004
-6.5740004 2.09729 -0.42512003
-6.5240002 2.1972899 -0.37512001
-6.4240003 1.89729 -0.47512004
-6.1240001 2.34729 -0.47512004
-6.1240001 2.39729 -0.47512004
-6.1240001 2.4972899 -0.47512004
-6.7240005 1.89729 0.42488
-6.7240005 1.9472899 0.52487999
-6.5740004 2.14729 0.47487998
-6.8740001 1.84729 0.57488
-6.7740002 1.99729 0.62488002
-6.6740003 2.1972899 0.62488002
-6.6240001 2.1972899 0.67487997
-6.5740004 2.1972899 0.77487999
-6.3240004 2.0472901 0.32487997
-6.4740005 2.1972899 0.42488
-6.3240004 2.14729 0.47487998
-6.2240005 1.9472899 0.47487998
-6.1740003 1.89729 0.37487999
-6.1240001 1.84729 0.47487998
-6.1740003 1.9472899 0.37487999
-6.1740003 1.9472899 0.42488
-6.1740003 2.09729 0.32487997
-6.2240005 2.09729 0.42488
-6.2740002 2.14729 0.37487999
-6.2740002 2.14729 0.52487999
-6.1740003 2.09729 0.37487999
-6.1240001 2.09729 0.37487999
-6.1240001 2.09729 0.47487998
-6.4740005 2.14729 0.67487997
-6.2240005 1.89729 0.67487997
-6.1740003 1.84729 0.57488
-6.1740003 1.89729 0.57488
-6.1740003 1.89729 0.62488002
-6.1740003 1.84729 0.67487997
-6.1740003 1.99729 0.57488
-6.1240001 1.99729 0.67487997
-6.1240001 1.99729 0.72487998
-6.2240005 1.89729 0.77487999
-6.1740003 1.99729 0.77487999
-6.1740003 2.09729 0.62488002
-6.1240001 2.09729 0.62488002
-6.1240001 2.0472901 0.67487997
-6.1240001 2.14729 0.62488002
-6.1240001 2.14729 0.67487997
-6.1240001 2.09729 0.82488
-6.1740003 2.2972901 0.62488002
-6.1740003 2.39729 0.62488002
-6.1740003 2.39729 0.72487998
-6.1240001 2.34729 0.72487998
-6.1740003 2.2472899 0.87488002
-6.1740003 2.34729 0.82488
-6.2240005 2.4472899 0.62488002
-6.2240005 2.59729 0.82488
-6.1740003 2.4472899 0.87488002
-6.1740003 2.5472901 0.82488
-7.3240004 1.1972899 0.97487998
-7.3240004 1.24729 1.07488
-7.3240004 1.3472899 1.12488
-7.3240004 1.39729 1.32488
-7.5240002 1.79729 1.0248801
-7.5240002 1.79729 1.07488
-7.4240003 1.49729 0.97487998
-7.4240003 1.49729 1.07488
-7.4740005 1.64729 1.12488
-7.4740005 1.64729 1.32488
-7.2740002 1.0972899 1.12488
-7.2740002 1.0972899 1.2748801
-7.5740004 1.9472899 0.97487998
-7.5740004 1.9472899 1.12488
-7.5240002 1.9472899 1.32488
-7.6240001 2.09729 1.0248801
-7.6240001 2.09729 1.12488
-7.6240001 2.2472899 0.97487998
-7.6240001 2.2472899 1.12488
-7.6740003 2.34729 0.97487998
-7.5740004 2.2472899 0.97487998
-7.6740003 2.2472899 1.32488
-6.0240002 -0.40271005 -0.52512002
-5.9740005 -0.55271006 -0.47512004
-5.9240003 -0.55271006 -0.47512004
-6.0740004 -0.45271006 -0.37512001
-5.9740005 -0.55271006 -0.42512003
-5.9740005 -0.55271006 -0.32512003
-6.0740004 -0.25271004 -0.47512004
-5.9740005 -0.35271004 -0.47512004
-5.9240003 -0.25271004 -0.47512004
-5.8740001 -0.45271006 -0.47512004
-5.8740001 -0.40271005 -0.47512004
-5.7740002 -0.50271004 -0.52512002
-5.7740002 -0.40271005 -0.52512002
-5.8740001 -0.55271006 -0.42512003
-5.8240004 -0.20271005 -0.47512004
-6.0740004 0.19728996 -0.47512004
-5.9740005 0.19728996 -0.52512002
-5.8740001 -0.0027100425 -0.52512002
-5.7740002 -0.052710041 -0.42512003
-5.7240005 -0.0027100425 -0.42512003
-5.8240004 0.19728996 -0.57512003
-5.8240004 0.14728996 -0.47512004
-5.7740002 0.04728996 -0.52512002
-5.7240005 0.14728996 -0.52512002
-5.8740001 0.04728996 -0.37512001
-5.7240005 0.097289957 -0.37512001
-5.7740002 0.14728996 -0.27512002
-5.6740003 -0.50271004 -0.47512004
-5.6740003 -0.45271006 -0.57512003
-5.6740003 -0.40271005 -0.47512004
-5.6240001 -0.40271005 -0.47512004
-5.5240002 -0.40271005 -0.52512002
-5.6740003 -0.35271004 -0.47512004
-5.5240002 -0.30271006 -0.52512002
-5.4240003 -0.55271006 -0.47512004
-5.3740001 -0.55271006 -0.47512004
-5.4240003 -0.55271006 -0.42512003
-5.3240004 -0.50271004 -0.37512001
-5.4240003 -0.25271004 -0.62512004
-5.4740005 -0.25271004 -0.47512004
-5.4740005 -0.20271005 -0.52512002
-5.4240003 -0.25271004 -0.47512004
-5.3740001 -0.30271006 -0.52512002
-5.3240004 -0.35271004 -0.52512002
-5.3240004 -0.35271004 -0.47512004
-5.3740001 -0.25271004 -0.57512003
-5.3740001 -0.35271004 -0.42512003
-5.3740001 -0.20271005 -0.42512003
-5.3240004 -0.25271004 -0.37512001
-5.3240004 -0.35271004 -0.22512002
-5.6740003 -0.0027100425 -0.62512004
-5.6740003 -0.052710041 -0.52512002
-5.6740003 -0.0027100425 -0.52512002
-5.5240002 -0.10271005 -0.47512004
-5.5240002 -0.0027100425 -0.52512002
-5.5240002 -0.15271005 -0.37512001
-5.6740003 0.04728996 -0.62512004
-5.6740003 0.097289957 -0.57512003
-5.6740003 0.097289957 -0.52512002
-5.6240001 0.04728996 -0.52512002
-5.6240001 0.097289957 -0.52512002
-5.6240001 0.14728996 -0.52512002
-5.6240001 0.14728996 -0.47512004
-5.6240001 0.19728996 -0.52512002
-5.5240002 0.04728996 -0.47512004
-5.5240002 0.097289957 -0.52512002
-5.5740004 0.14728996 -0.52512002
-5.5240002 0.19728996 -0.47512004
-5.6740003 0.04728996 -0.37512001
-5.6740003 0.097289957 -0.37512001
-5.6740003 0.097289957 -0.32512003
-5.6740003 0.14728996 -0.42512003
-5.6240001 0.14728996 -0.42512003
-5.4240003 -0.10271005 -0.52512002
-5.4240003 -0.052710041 -0.47512004
-5.3740001 -0.15271005 -0.47512004
-5.3240004 -0.052710041 -0.47512004
-5.4740005 -0.15271005 -0.37512001
-5.4240003 -0.10271005 -0.37512001
-5.4240003 -0.15271005 -0.32512003
-5.4240003 -0.10271005 -0.32512003
-5.4740005 -0.0027100425 -0.42512003
-5.3740001 -0.10271005 -0.37512001
-5.3740001 -0.10271005 -0.27512002
-5.3740001 -0.052710041 -0.42512003
-5.3740001 -0.0027100425 -0.37512001
-5.3240004 -0.052710041 -0.37512001
-5.3740001 -0.052710041 -0.32512003
-5.3240004 -0.052710041 -0.32512003
-5.4740005 0.04728996 -0.47512004
-5.4240003 0.097289957 -0.52512002
-5.4240003 0.097289957 -0.47512004
-5.4740005 0.19728996 -0.52512002
-5.4240003 0.14728996 -0.47512004
-5.3740001 0.097289957 -0.47512004
-5.3240004 0.097289957 -0.47512004
-5.3240004 0.19728996 -0.47512004
-5.4740005 0.097289957 -0.42512003
-5.4240003 0.04728996 -0.42512003
-5.4240003 0.14728996 -0.42512003
-5.5240002 -0.15271005 0.074879982
-5.4240003 -0.15271005 -0.22512002
-5.4240003 -0.10271005 -0.17512003
-5.4740005 -0.15271005 -0.075120024
-5.4240003 -0.15271005 -0.12512003
-5.4240003 -0.15271005 -0.075120024
-5.4240003 -0.10271005 -0.075120024
-5.3740001 -0.15271005 -0.22512002
-5.3740001 -0.15271005 -0.17512003
-5.3740001 -0.10271005 -0.22512002
-5.3240004 -0.10271005 -0.17512003
-5.3740001 -0.15271005 -0.075120024
-5.3740001 -0.10271005 -0.12512003
-5.3740001 -0.10271005 -0.075120024
-5.3740001 -0.052710041 -0.22512002
-5.3740001 -0.052710041 -0.17512003
-5.3240004 -0.052710041 -0.22512002
-5.3240004 -0.052710041 -0.17512003
-5.3740001 -0.052710041 -0.12512003
-5.3740001 -0.052710041 -0.075120024
-5.3240004 -0.052710041 -0.12512003
-5.3240004 -0.052710041 -0.075120024
-5.3240004 -0.0027100425 -0.075120024
-5.4240003 -0.15271005 0.024879979
-5.4240003 -0.10271005 0.024879979
-5.4240003 -0.15271005 0.074879982
-5.4240003 -0.15271005 0.12487998
-5.4240003 -0.10271005 0.12487998
-5.4240003 -0.052710041 0.074879982
-5.3740001 -0.15271005 -0.025120022
-5.3740001 -0.15271005 0.024879979
-5.3740001 -0.10271005 -0.025120022
-5.3740001 -0.10271005 0.024879979
-5.3240004 -0.15271005 -0.025120022
-5.3240004 -0.10271005 -0.025120022
-5.3240004 -0.10271005 0.024879979
-5.3240004 -0.10271005 0.12487998
-5.3740001 -0.052710041 -0.025120022
-5.3240004 -0.0027100425 0.024879979
-5.3740001 -0.052710041 0.12487998
-5.3240004 -0.052710041 0.074879982
-5.9240003 -0.55271006 0.17487998
-5.9240003 -0.55271006 0.22487998
-5.8740001 -0.55271006 0.17487998
-5.8740001 -0.55271006 0.22487998
-5.8740001 -0.50271004 0.22487998
-5.8740001 -0.50271004 0.52487999
-5.8240004 -0.55271006 0.52487999
-5.8240004 -0.50271004 0.47487998
-5.7740002 -0.40271005 0.42488
-5.8240004 -0.25271004 0.37487999
-5.7240005 -0.35271004 0.52487999
-5.9240003 -0.20271005 0.62488002
-5.9240003 -0.25271004 0.82488
-5.8740001 -0.55271006 0.57488
-5.8240004 -0.45271006 0.57488
-5.7740002 -0.45271006 0.57488
-5.7740002 -0.40271005 0.62488002
-5.7240005 -0.20271005 0.57488
-5.7240005 -0.20271005 0.62488002
-5.7240005 -0.20271005 0.77487999
-5.7740002 -0.25271004 0.87488002
-5.7740002 -0.15271005 0.32487997
-5.7740002 -0.15271005 0.47487998
-5.7240005 -0.10271005 0.47487998
-5.8740001 -0.15271005 0.62488002
-5.7240005 -0.10271005 0.62488002
-5.5240002 -0.20271005 0.17487998
-5.6240001 -0.20271005 0.52487999
-5.6740003 -0.25271004 0.62488002
-5.6740003 -0.20271005 0.57488
-5.6740003 -0.0027100425 0.32487997
-5.5240002 -0.15271005 0.22487998
-5.6740003 -0.10271005 0.37487999
-5.6240001 -0.10271005 0.42488
-5.6740003 -0.10271005 0.47487998
-5.6240001 -0.15271005 0.52487999
-5.6240001 -0.10271005 0.47487998
-5.6240001 -0.052710041 0.42488
-5.6240001 -0.0027100425 0.42488
-5.6240001 -0.0027100425 0.52487999
-5.5740004 -0.10271005 0.37487999
-5.5740004 -0.15271005 0.52487999
-5.5740004 -0.10271005 0.47487998
-5.5240002 -0.052710041 0.37487999
-5.6740003 0.19728996 0.32487997
-5.6740003 0.097289957 0.37487999
-5.6740003 0.097289957 0.47487998
-5.6240001 0.097289957 0.47487998
-5.6240001 0.097289957 0.52487999
-5.6240001 0.14728996 0.37487999
-5.6240001 0.14728996 0.42488
-5.6240001 0.19728996 0.42488
-5.6240001 0.14728996 0.47487998
-5.6240001 0.19728996 0.52487999
-5.4740005 -0.15271005 0.22487998
-5.4240003 -0.15271005 0.17487998
-5.4240003 -0.15271005 0.22487998
-5.4240003 -0.10271005 0.17487998
-5.4240003 -0.10271005 0.22487998
-5.4740005 -0.10271005 0.32487997
-5.4240003 -0.15271005 0.27487999
-5.4240003 -0.10271005 0.27487999
-5.4240003 -0.10271005 0.32487997
-5.4240003 -0.052710041 0.32487997
-5.3740001 -0.10271005 0.17487998
-5.3740001 -0.10271005 0.22487998
-5.3740001 -0.10271005 0.27487999
-5.3740001 -0.10271005 0.32487997
-5.3740001 -0.052710041 0.22487998
-5.3740001 -0.052710041 0.27487999
-5.3740001 -0.052710041 0.32487997
-5.3240004 -0.052710041 0.27487999
-5.3240004 -0.052710041 0.32487997
-5.4740005 -0.10271005 0.47487998
-5.4240003 -0.15271005 0.52487999
-5.4240003 -0.052710041 0.52487999
-5.3740001 -0.10271005 0.37487999
-5.3740001 -0.10271005 0.42488
-5.3740001 -0.10271005 0.47487998
-5.3740001 -0.0027100425 0.42488
-5.3240004 -0.0027100425 0.52487999
-5.6740003 -0.10271005 0.57488
-5.6740003 -0.10271005 0.62488002
-5.6240001 -0.15271005 0.62488002
-5.6740003 -0.15271005 0.72487998
-5.6740003 -0.10271005 0.67487997
-5.6240001 -0.15271005 0.67487997
-5.6740003 -0.052710041 0.62488002
-5.6240001 -0.052710041 0.57488
-5.6240001 -0.052710041 0.62488002
-5.6740003 -0.052710041 0.67487997
-5.6240001 -0.052710041 0.67487997
-5.6240001 -0.052710041 0.72487998
-5.6240001 -0.0027100425 0.72487998
-5.6240001 -0.10271005 0.82488
-5.6740003 0.097289957 0.57488
-5.6240001 0.04728996 0.62488002
-5.6240001 0.097289957 0.57488
-5.6240001 0.097289957 0.62488002
-5.6240001 0.04728996 0.67487997
-5.6240001 0.097289957 0.67487997
-5.6240001 0.097289957 0.72487998
-5.6240001 0.14728996 0.62488002
-5.6240001 0.19728996 0.57488
-5.6240001 0.14728996 0.72487998
-5.6240001 0.19728996 0.67487997
-5.6240001 0.097289957 0.82488
-5.6240001 0.04728996 0.92487997
-5.5740004 0.04728996 0.87488002
-6.0240002 0.29728997 -0.57512003
-6.0240002 0.29728997 -0.52512002
-6.0240002 0.39728996 -0.47512004
-5.9740005 0.34728995 -0.62512004
-5.9740005 0.34728995 -0.57512003
-5.9240003 0.39728996 -0.52512002
-6.0740004 0.39728996 -0.37512001
-6.0240002 0.39728996 -0.42512003
-5.9740005 0.24728996 -0.42512003
-5.9740005 0.39728996 -0.37512001
-6.0740004 0.49728996 -0.47512004
-6.0240002 0.54728997 -0.47512004
-5.9740005 0.44728997 -0.62512004
-5.9740005 0.49728996 -0.52512002
-5.9240003 0.54728997 -0.57512003
-6.0740004 0.49728996 -0.37512001
-6.0740004 0.59728998 -0.42512003
-6.0240002 0.54728997 -0.37512001
-6.0240002 0.59728998 -0.32512003
-5.9740005 0.44728997 -0.42512003
-5.9740005 0.59728998 -0.42512003
-5.9240003 0.59728998 -0.37512001
-5.9740005 0.54728997 -0.32512003
-5.9240003 0.54728997 -0.27512002
-5.8740001 0.34728995 -0.57512003
-5.8240004 0.39728996 -0.52512002
-5.8240004 0.39728996 -0.47512004
-5.7740002 0.34728995 -0.47512004
-5.7740002 0.39728996 -0.52512002
-5.8740001 0.39728996 -0.37512001
-5.8240004 0.39728996 -0.42512003
-5.8740001 0.44728997 -0.57512003
-5.8240004 0.59728998 -0.52512002
-5.7740002 0.54728997 -0.52512002
-5.8240004 0.44728997 -0.42512003
-5.8240004 0.44728997 -0.37512001
-5.8740001 0.54728997 -0.37512001
-5.9240003 0.59728998 -0.22512002
-5.9740005 0.54728997 -0.12512003
-5.9240003 0.54728997 -0.12512003
-5.9240003 0.59728998 -0.12512003
-5.9240003 0.59728998 -0.075120024
-5.9740005 0.54728997 0.024879979
-5.9240003 0.54728997 0.024879979
-5.9240003 0.59728998 -0.025120022
-5.9240003 0.54728997 0.12487998
-5.8740001 0.59728998 -0.12512003
-6.0740004 0.79728997 -0.47512004
-5.9240003 0.64728999 -0.57512003
-6.0740004 0.64728999 -0.27512002
-6.0740004 0.84728998 -0.57512003
-6.0740004 0.94728994 -0.57512003
-6.0240002 0.99728996 -0.57512003
-6.0740004 0.99728996 -0.52512002
-6.0740004 0.99728996 -0.47512004
-5.9740005 0.89728999 -0.47512004
-5.9240003 0.99728996 -0.62512004
-6.0740004 0.99728996 -0.42512003
-6.0240002 0.94728994 -0.42512003
-5.8740001 0.69728994 -0.57512003
-5.8740001 0.79728997 -0.57512003
-5.8740001 0.74728996 -0.52512002
-5.7240005 0.69728994 -0.47512004
-5.7240005 0.79728997 -0.57512003
-5.8240004 0.69728994 -0.42512003
-5.7240005 0.79728997 -0.37512001
-5.8740001 0.89728999 -0.57512003
-5.8240004 0.94728994 -0.47512004
-5.7740002 0.84728998 -0.47512004
-5.7240005 0.84728998 -0.47512004
-5.9240003 0.64728999 0.024879979
-5.9740005 0.64728999 0.12487998
-5.6240001 0.29728997 -0.52512002
-5.6240001 0.39728996 -0.47512004
-5.5740004 0.24728996 -0.52512002
-5.5240002 0.29728997 -0.52512002
-5.5740004 0.34728995 -0.57512003
-5.5740004 0.34728995 -0.52512002
-5.5740004 0.39728996 -0.52512002
-5.5240002 0.39728996 -0.52512002
-5.6240001 0.24728996 -0.42512003
-5.5740004 0.34728995 -0.42512003
-5.6740003 0.49728996 -0.52512002
-5.5740004 0.49728996 -0.57512003
-5.5740004 0.49728996 -0.52512002
-5.5240002 0.44728997 -0.52512002
-5.5240002 0.54728997 -0.52512002
-5.5240002 0.44728997 -0.42512003
-5.4740005 0.29728997 -0.52512002
-5.4240003 0.24728996 -0.47512004
-5.3240004 0.24728996 -0.52512002
-5.3240004 0.29728997 -0.52512002
-5.3240004 0.29728997 -0.47512004
-5.3740001 0.39728996 -0.57512003
-5.3240004 0.34728995 -0.47512004
-5.3740001 0.24728996 -0.42512003
-5.3740001 0.34728995 -0.42512003
-5.4240003 0.49728996 -0.57512003
-5.4740005 0.59728998 -0.47512004
-5.4240003 0.54728997 -0.37512001
-5.3240004 0.49728996 -0.42512003
-5.3740001 0.59728998 -0.37512001
-5.3240004 0.59728998 -0.42512003
-5.6740003 0.64728999 -0.57512003
-5.5740004 0.64728999 -0.52512002
-5.5240002 0.64728999 -0.52512002
-5.5240002 0.69728994 -0.52512002
-5.5740004 0.74728996 -0.52512002
-5.5240002 0.79728997 -0.47512004
-5.6740003 0.94728994 -0.47512004
-5.6240001 0.94728994 -0.47512004
-5.5740004 0.84728998 -0.57512003
-5.5740004 0.89728999 -0.57512003
-5.5740004 0.89728999 -0.52512002
-5.5240002 0.84728998 -0.52512002
-5.5240002 0.94728994 -0.52512002
-5.6240001 0.89728999 -0.37512001
-5.4740005 0.69728994 -0.47512004
-5.4240003 0.74728996 -0.52512002
-5.3740001 0.69728994 -0.52512002
-5.3240004 0.69728994 -0.42512003
-5.3240004 0.69728994 -0.37512001
-5.4740005 0.84728998 -0.52512002
-5.3740001 0.84728998 -0.47512004
-5.3740001 0.89728999 -0.52512002
-5.3240004 0.89728999 -0.47512004
-5.3740001 0.99728996 -0.32512003
-5.9740005 0.59728998 0.17487998
-5.9240003 0.59728998 0.22487998
-5.9240003 0.59728998 0.32487997
-5.9740005 0.59728998 0.37487999
-5.9240003 0.59728998 0.42488
-5.9740005 0.64728999 0.32487997
-5.6240001 0.24728996 0.42488
-5.2740002 -0.50271004 -0.62512004
-5.2740002 -0.55271006 -0.47512004
-5.2740002 -0.50271004 -0.52512002
-5.2240005 -0.50271004 -0.52512002
-5.2740002 -0.40271005 -0.57512003
-5.2240005 -0.45271006 -0.47512004
-5.1740003 -0.45271006 -0.57512003
-5.1240001 -0.40271005 -0.57512003
-5.1740003 -0.40271005 -0.47512004
-5.2740002 -0.40271005 -0.37512001
-5.2240005 -0.45271006 -0.42512003
-5.2740002 -0.40271005 -0.32512003
-5.2240005 -0.40271005 -0.32512003
-5.1740003 -0.55271006 -0.42512003
-5.1740003 -0.50271004 -0.37512001
-5.1240001 -0.50271004 -0.37512001
-5.1740003 -0.45271006 -0.42512003
-5.1740003 -0.40271005 -0.42512003
-5.1740003 -0.40271005 -0.37512001
-5.1240001 -0.45271006 -0.42512003
-5.1240001 -0.45271006 -0.37512001
-5.1240001 -0.40271005 -0.37512001
-5.2740002 -0.35271004 -0.47512004
-5.2240005 -0.35271004 -0.52512002
-5.2740002 -0.20271005 -0.57512003
-5.2240005 -0.25271004 -0.57512003
-5.1740003 -0.20271005 -0.57512003
-5.1740003 -0.25271004 -0.52512002
-5.1740003 -0.25271004 -0.47512004
-5.2740002 -0.30271006 -0.42512003
-5.2740002 -0.35271004 -0.32512003
-5.2740002 -0.20271005 -0.42512003
-5.1740003 -0.35271004 -0.42512003
-5.1740003 -0.30271006 -0.37512001
-5.1240001 -0.35271004 -0.42512003
-5.1740003 -0.35271004 -0.27512002
-5.1240001 -0.20271005 -0.42512003
-5.0240002 -0.55271006 -0.57512003
-5.0740004 -0.40271005 -0.57512003
-5.0240002 -0.45271006 -0.47512004
-4.9240003 -0.50271004 -0.57512003
-4.9740005 -0.50271004 -0.47512004
-4.9240003 -0.55271006 -0.47512004
-4.9240003 -0.40271005 -0.47512004
-5.0740004 -0.55271006 -0.42512003
-5.0740004 -0.50271004 -0.42512003
-5.0740004 -0.45271006 -0.42512003
-4.9240003 -0.55271006 -0.42512003
-4.9240003 -0.45271006 -0.42512003
-5.0740004 -0.35271004 -0.57512003
-5.0740004 -0.30271006 -0.57512003
-5.0740004 -0.30271006 -0.47512004
-5.0240002 -0.25271004 -0.47512004
-5.0240002 -0.20271005 -0.52512002
-4.9740005 -0.35271004 -0.47512004
-4.9740005 -0.25271004 -0.57512003
-4.9240003 -0.25271004 -0.47512004
-5.0740004 -0.25271004 -0.37512001
-5.0240002 -0.20271005 -0.42512003
-5.0240002 -0.20271005 -0.37512001
-4.9240003 -0.35271004 -0.42512003
-4.9740005 -0.25271004 -0.37512001
-4.9240003 -0.20271005 -0.42512003
-4.9240003 -0.20271005 -0.37512001
-5.1740003 -0.40271005 -0.075120024
-5.2240005 -0.40271005 0.074879982
-5.1740003 -0.40271005 0.074879982
-5.2240005 -0.35271004 -0.17512003
-5.2240005 -0.35271004 -0.12512003
-5.2240005 -0.35271004 -0.075120024
-5.2240005 -0.20271005 -0.22512002
-5.1740003 -0.35271004 -0.17512003
-5.1240001 -0.25271004 -0.17512003
-5.1240001 -0.20271005 -0.22512002
-5.1740003 -0.20271005 -0.12512003
-5.1240001 -0.25271004 -0.12512003
-5.1240001 -0.20271005 -0.12512003
-5.1240001 -0.20271005 -0.075120024
-5.1740003 -0.35271004 -0.025120022
-5.1740003 -0.35271004 0.024879979
-5.1740003 -0.30271006 0.024879979
-5.1240001 -0.30271006 -0.025120022
-5.1240001 -0.30271006 0.024879979
-5.1740003 -0.35271004 0.074879982
-5.1740003 -0.35271004 0.12487998
-5.1740003 -0.30271006 0.074879982
-5.1740003 -0.30271006 0.12487998
-5.1240001 -0.25271004 -0.025120022
-5.1240001 -0.25271004 0.024879979
-5.1240001 -0.20271005 -0.025120022
-5.1240001 -0.20271005 0.024879979
-5.1240001 -0.20271005 0.12487998
-5.0740004 -0.25271004 0.024879979
-5.2240005 -0.052710041 -0.52512002
-5.1740003 -0.052710041 -0.52512002
-5.1740003 -0.0027100425 -0.52512002
-5.1740003 -0.0027100425 -0.47512004
-5.1240001 -0.0027100425 -0.52512002
-5.2740002 -0.15271005 -0.42512003
-5.2240005 -0.10271005 -0.42512003
-5.2240005 -0.15271005 -0.32512003
-5.2740002 -0.052710041 -0.42512003
-5.1240001 -0.15271005 -0.42512003
-5.1240001 -0.15271005 -0.37512001
-5.1240001 -0.10271005 -0.42512003
-5.1240001 -0.10271005 -0.37512001
-5.1240001 -0.15271005 -0.32512003
-5.1240001 -0.10271005 -0.27512002
-5.1240001 -0.052710041 -0.37512001
-5.2240005 0.097289957 -0.52512002
-5.2740002 0.14728996 -0.52512002
-5.2740002 0.19728996 -0.47512004
-5.1240001 0.097289957 -0.52512002
-5.1240001 0.19728996 -0.52512002
-5.2240005 0.097289957 -0.42512003
-5.2240005 0.19728996 -0.42512003
-5.1740003 0.097289957 -0.42512003
-5.0740004 -0.10271005 -0.62512004
-5.0740004 -0.15271005 -0.47512004
-5.0740004 -0.10271005 -0.47512004
-5.0240002 -0.15271005 -0.47512004
-5.0240002 -0.0027100425 -0.62512004
-5.0740004 -0.052710041 -0.52512002
-4.9740005 -0.15271005 -0.47512004
-4.9740005 -0.10271005 -0.47512004
-5.0740004 -0.15271005 -0.42512003
-5.0740004 -0.15271005 -0.37512001
-5.0740004 -0.10271005 -0.42512003
-4.9740005 -0.15271005 -0.42512003
-4.9740005 -0.15271005 -0.37512001
-4.9240003 -0.10271005 -0.37512001
-4.9740005 -0.10271005 -0.32512003
-5.0240002 0.097289957 -0.62512004
-5.0240002 0.19728996 -0.62512004
-4.9240003 0.097289957 -0.62512004
-4.9740005 0.19728996 -0.47512004
-5.2740002 -0.10271005 -0.075120024
-5.2240005 -0.15271005 -0.075120024
-5.2740002 -0.15271005 0.024879979
-5.2240005 -0.15271005 0.074879982
-5.1740003 -0.15271005 0.024879979
-5.1740003 -0.15271005 0.074879982
-5.0740004 -0.15271005 0.12487998
-4.8240004 -0.50271004 -0.47512004
-4.8740001 -0.45271006 -0.47512004
-4.8740001 -0.40271005 -0.47512004
-4.7240005 -0.50271004 -0.57512003
-4.7740002 -0.55271006 -0.47512004
-4.7240005 -0.50271004 -0.52512002
-4.7240005 -0.40271005 -0.57512003
-4.7240005 -0.40271005 -0.52512002
-4.7240005 -0.40271005 -0.42512003
-4.7240005 -0.30271006 -0.57512003
-4.7740002 -0.35271004 -0.52512002
-4.7740002 -0.30271006 -0.52512002
-4.7740002 -0.20271005 -0.57512003
-4.7240005 -0.25271004 -0.62512004
-4.7740002 -0.20271005 -0.52512002
-4.8240004 -0.30271006 -0.42512003
-4.8740001 -0.25271004 -0.42512003
-4.8740001 -0.20271005 -0.42512003
-4.6240001 -0.55271006 -0.57512003
-4.6740003 -0.55271006 -0.52512002
-4.6240001 -0.55271006 -0.52512002
-4.6240001 -0.50271004 -0.47512004
-4.6740003 -0.40271005 -0.57512003
-4.6240001 -0.40271005 -0.47512004
-4.5740004 -0.55271006 -0.47512004
-4.5740004 -0.40271005 -0.52512002
-4.6740003 -0.55271006 -0.42512003
-4.6740003 -0.50271004 -0.42512003
-4.6740003 -0.45271006 -0.42512003
-4.6240001 -0.45271006 -0.42512003
-4.5740004 -0.50271004 -0.42512003
-4.5240002 -0.50271004 -0.42512003
-4.6240001 -0.30271006 -0.52512002
-4.6740003 -0.20271005 -0.52512002
-4.6240001 -0.25271004 -0.47512004
-4.6240001 -0.20271005 -0.52512002
-4.6240001 -0.20271005 -0.47512004
-4.5240002 -0.30271006 -0.47512004
-4.5740004 -0.20271005 -0.47512004
-4.5240002 -0.20271005 -0.47512004
-4.6240001 -0.35271004 -0.42512003
-4.5740004 -0.30271006 -0.42512003
-4.8240004 -0.10271005 -0.52512002
-4.8740001 -0.0027100425 -0.52512002
-4.8240004 -0.052710041 -0.52512002
-4.7740002 -0.10271005 -0.57512003
-4.7740002 -0.052710041 -0.62512004
-4.7740002 -0.0027100425 -0.62512004
-4.7740002 -0.052710041 -0.47512004
-4.8740001 -0.15271005 -0.42512003
-4.8240004 -0.10271005 -0.37512001
-4.8740001 -0.052710041 -0.42512003
-4.7240005 -0.0027100425 -0.37512001
-4.8740001 0.097289957 -0.52512002
-4.8240004 0.19728996 -0.52512002
-4.7740002 0.097289957 -0.62512004
-4.7740002 0.097289957 -0.52512002
-4.7240005 0.04728996 -0.52512002
-4.7240005 0.097289957 -0.52512002
-4.7240005 0.19728996 -0.62512004
-4.7240005 0.19728996 -0.47512004
-4.8740001 0.04728996 -0.42512003
-4.8240004 0.04728996 -0.37512001
-4.8740001 0.14728996 -0.37512001
-4.7240005 0.097289957 -0.42512003
-4.6740003 -0.15271005 -0.52512002
-4.6740003 -0.10271005 -0.47512004
-4.6240001 -0.10271005 -0.52512002
-4.6740003 -0.052710041 -0.52512002
-4.6740003 -0.0027100425 -0.47512004
-4.6240001 -0.0027100425 -0.47512004
-4.5740004 -0.10271005 -0.47512004
-4.5740004 -0.0027100425 -0.47512004
-4.6740003 0.097289957 -0.52512002
-4.6240001 0.097289957 -0.47512004
-4.6240001 0.19728996 -0.47512004
-4.5240002 0.097289957 -0.47512004
-4.5240002 0.14728996 -0.62512004
-4.5740004 0.14728996 -0.52512002
-4.5240002 0.19728996 -0.47512004
-4.5740004 0.19728996 -0.37512001
-5.1240001 -0.40271005 0.37487999
-5.1740003 -0.35271004 0.17487998
-5.1240001 -0.35271004 0.22487998
-5.1740003 -0.35271004 0.27487999
-5.1240001 -0.35271004 0.27487999
-5.1740003 -0.20271005 0.22487998
-5.1240001 -0.20271005 0.22487998
-5.1740003 -0.35271004 0.37487999
-5.1240001 -0.35271004 0.37487999
-5.1240001 -0.20271005 0.37487999
-5.0740004 -0.20271005 0.27487999
-5.0740004 -0.20271005 0.32487997
-5.2240005 -0.10271005 0.22487998
-5.1740003 -0.15271005 0.22487998
-5.1240001 -0.10271005 0.32487997
-5.0740004 -0.15271005 0.22487998
-5.0740004 -0.15271005 0.37487999
-5.2740002 0.39728996 -0.47512004
-5.2240005 0.34728995 -0.47512004
-5.1740003 0.24728996 -0.47512004
-5.1740003 0.39728996 -0.57512003
-5.1240001 0.34728995 -0.52512002
-5.1240001 0.34728995 -0.47512004
-5.2740002 0.29728997 -0.42512003
-5.2240005 0.24728996 -0.42512003
-5.2240005 0.39728996 -0.42512003
-5.1240001 0.39728996 -0.42512003
-5.2240005 0.49728996 -0.47512004
-5.2740002 0.54728997 -0.52512002
-5.2240005 0.54728997 -0.47512004
-5.1740003 0.49728996 -0.57512003
-5.1740003 0.44728997 -0.52512002
-5.1740003 0.44728997 -0.47512004
-5.1740003 0.49728996 -0.47512004
-5.1740003 0.59728998 -0.57512003
-5.1240001 0.59728998 -0.47512004
-5.2240005 0.54728997 -0.42512003
-5.1240001 0.49728996 -0.42512003
-5.0740004 0.24728996 -0.52512002
-5.0740004 0.29728997 -0.52512002
-5.0240002 0.34728995 -0.52512002
-4.9240003 0.24728996 -0.52512002
-4.9740005 0.39728996 -0.52512002
-4.9240003 0.39728996 -0.52512002
-5.0240002 0.44728997 -0.47512004
-4.9240003 0.49728996 -0.57512003
-4.9740005 0.44728997 -0.52512002
-4.9740005 0.49728996 -0.52512002
-4.9240003 0.49728996 -0.47512004
-4.9740005 0.59728998 -0.57512003
-4.9740005 0.59728998 -0.52512002
-5.0240002 0.59728998 -0.42512003
-5.1740003 0.74728996 -0.57512003
-5.1240001 0.74728996 -0.47512004
-5.2240005 0.64728999 -0.42512003
-5.2240005 0.74728996 -0.42512003
-5.2240005 0.79728997 -0.37512001
-5.1740003 0.84728998 -0.57512003
-5.1740003 0.84728998 -0.42512003
-5.1740003 0.89728999 -0.37512001
-5.1240001 0.89728999 -0.32512003
-5.1740003 0.99728996 -0.27512002
-5.0240002 0.69728994 -0.57512003
-5.0740004 0.64728999 -0.47512004
-5.0740004 0.69728994 -0.47512004
-5.0240002 0.74728996 -0.47512004
-5.0240002 0.79728997 -0.52512002
-4.9740005 0.74728996 -0.52512002
-4.9740005 0.79728997 -0.47512004
-4.9740005 0.69728994 -0.42512003
-5.0740004 0.84728998 -0.57512003
-5.0240002 0.84728998 -0.47512004
-4.9740005 0.84728998 -0.57512003
-4.9240003 0.89728999 -0.57512003
-4.9740005 0.84728998 -0.47512004
-4.9740005 0.89728999 -0.52512002
-4.9740005 0.89728999 -0.47512004
-4.9240003 0.89728999 -0.52512002
-4.9740005 0.94728994 -0.57512003
-4.9240003 0.94728994 -0.57512003
-4.9240003 0.99728996 -0.57512003
-4.9740005 0.94728994 -0.47512004
-4.9240003 0.94728994 -0.47512004
-4.9240003 0.99728996 -0.47512004
-5.0740004 0.84728998 -0.42512003
-5.0240002 0.84728998 -0.37512001
-5.0240002 0.84728998 -0.27512002
-5.0240002 0.89728999 -0.27512002
-5.0240002 0.99728996 -0.42512003
-5.0240002 0.99728996 -0.37512001
-5.0240002 0.99728996 -0.32512003
-4.9740005 0.84728998 -0.42512003
-4.9740005 0.89728999 -0.37512001
-4.9240003 0.89728999 -0.42512003
-4.9740005 0.89728999 -0.32512003
-4.9740005 0.99728996 -0.42512003
-4.9240003 0.94728994 -0.42512003
-4.9240003 0.94728994 -0.37512001
-4.9240003 0.99728996 -0.42512003
-4.9240003 0.99728996 -0.37512001
-4.9740005 0.94728994 -0.32512003
-4.9740005 0.94728994 -0.27512002
-4.9240003 0.99728996 -0.32512003
-4.9740005 0.94728994 -0.22512002
-4.9240003 0.99728996 -0.22512002
-4.8740001 0.29728997 -0.52512002
-4.7240005 0.29728997 -0.62512004
-4.7240005 0.29728997 -0.47512004
-4.7240005 0.39728996 -0.62512004
-4.8740001 0.24728996 -0.37512001
-4.8240004 0.24728996 -0.42512003
-4.8240004 0.39728996 -0.37512001
-4.7740002 0.49728996 -0.62512004
-4.7240005 0.44728997 -0.47512004
-4.7240005 0.49728996 -0.47512004
-4.7240005 0.54728997 -0.47512004
-4.7240005 0.59728998 -0.47512004
-4.8240004 0.49728996 -0.37512001
-4.7740002 0.59728998 -0.37512001
-4.7240005 0.54728997 -0.42512003
-4.6240001 0.29728997 -0.62512004
-4.6740003 0.24728996 -0.52512002
-4.6740003 0.29728997 -0.52512002
-4.6740003 0.29728997 -0.47512004
-4.6740003 0.39728996 -0.57512003
-4.6740003 0.39728996 -0.52512002
-4.6740003 0.39728996 -0.47512004
-4.5740004 0.24728996 -0.52512002
-4.5240002 0.29728997 -0.52512002
-4.5740004 0.34728995 -0.52512002
-4.6740003 0.39728996 -0.42512003
-4.5740004 0.34728995 -0.42512003
-4.6740003 0.49728996 -0.57512003
-4.6240001 0.49728996 -0.57512003
-4.6740003 0.59728998 -0.57512003
-4.5740004 0.44728997 -0.52512002
-4.5240002 0.44728997 -0.42512003
-4.5240002 0.54728997 -0.42512003
-4.8740001 0.64728999 -0.47512004
-4.8740001 0.74728996 -0.57512003
-4.8240004 0.74728996 -0.47512004
-4.7740002 0.64728999 -0.57512003
-4.7240005 0.69728994 -0.57512003
-4.7740002 0.64728999 -0.47512004
-4.7240005 0.69728994 -0.47512004
-4.7740002 0.74728996 -0.47512004
-4.7740002 0.79728997 -0.47512004
-4.7240005 0.74728996 -0.52512002
-4.7740002 0.69728994 -0.37512001
-4.7740002 0.74728996 -0.42512003
-4.7740002 0.79728997 -0.37512001
-4.8240004 0.84728998 -0.52512002
-4.8740001 0.99728996 -0.57512003
-4.8240004 0.99728996 -0.57512003
-4.8740001 0.99728996 -0.47512004
-4.8240004 0.99728996 -0.52512002
-4.8240004 0.99728996 -0.47512004
-4.7740002 0.89728999 -0.57512003
-4.7240005 0.84728998 -0.57512003
-4.7740002 0.84728998 -0.47512004
-4.7240005 0.89728999 -0.47512004
-4.8740001 0.99728996 -0.42512003
-4.7240005 0.84728998 -0.37512001
-4.7240005 0.94728994 -0.32512003
-4.6240001 0.64728999 -0.57512003
-4.6240001 0.69728994 -0.57512003
-4.6240001 0.79728997 -0.57512003
-4.6240001 0.79728997 -0.47512004
-4.5240002 0.69728994 -0.57512003
-4.5740004 0.79728997 -0.57512003
-4.6240001 0.94728994 -0.57512003
-4.6740003 0.99728996 -0.47512004
-4.5740004 0.89728999 -0.57512003
-4.5740004 0.84728998 -0.47512004
-4.5240002 0.94728994 -0.47512004
-5.2240005 0.99728996 0.37487999
-5.6740003 -0.10271005 0.97487998
-5.5740004 -0.10271005 1.12488
-5.5740004 0.097289957 1.07488
-6.0740004 1.04729 -0.52512002
-6.0240002 1.04729 -0.52512002
-5.9740005 1.04729 -0.57512003
-5.9240003 1.04729 -0.57512003
-5.9740005 1.0972899 -0.52512002
-5.9240003 1.0972899 -0.52512002
-5.9740005 1.14729 -0.52512002
-5.9240003 1.14729 -0.52512002
-6.0240002 1.04729 -0.42512003
-6.0240002 1.04729 -0.37512001
-6.0740004 1.04729 -0.32512003
-6.0740004 1.04729 -0.27512002
-6.0740004 1.0972899 -0.32512003
-6.0240002 1.04729 -0.27512002
-6.0240002 1.0972899 -0.27512002
-5.9740005 1.04729 -0.37512001
-5.9740005 1.0972899 -0.42512003
-5.9240003 1.0972899 -0.42512003
-5.9740005 1.0972899 -0.32512003
-5.9740005 1.0972899 -0.27512002
-5.9240003 1.0972899 -0.32512003
-5.9740005 1.14729 -0.42512003
-5.9740005 1.14729 -0.37512001
-5.9240003 1.14729 -0.32512003
-5.9240003 1.14729 -0.27512002
-5.8240004 1.14729 -0.52512002
-5.7740002 1.04729 -0.47512004
-5.7240005 1.04729 -0.47512004
-5.8740001 1.0972899 -0.42512003
-5.8740001 1.14729 -0.42512003
-5.8740001 1.14729 -0.37512001
-5.8740001 1.1972899 -0.42512003
-5.8740001 1.14729 -0.27512002
-5.8740001 1.1972899 -0.27512002
-5.8240004 1.14729 -0.27512002
-5.8240004 1.1972899 -0.27512002
-5.7740002 1.14729 -0.42512003
-5.7740002 1.1972899 -0.37512001
-5.7740002 1.1972899 -0.27512002
-5.8240004 1.24729 -0.52512002
-5.8240004 1.24729 -0.47512004
-5.8240004 1.29729 -0.47512004
-5.8240004 1.3472899 -0.47512004
-5.7240005 1.24729 -0.52512002
-5.8240004 1.24729 -0.42512003
-5.8240004 1.24729 -0.27512002
-5.8240004 1.3472899 -0.27512002
-5.7740002 1.24729 -0.42512003
-5.7240005 1.24729 -0.42512003
-5.7240005 1.24729 -0.37512001
-5.7740002 1.24729 -0.27512002
-5.7740002 1.29729 -0.27512002
-5.7240005 1.24729 -0.27512002
-5.7740002 1.3472899 -0.42512003
-5.7240005 1.3472899 -0.37512001
-5.7740002 1.3472899 -0.27512002
-5.7740002 1.39729 -0.27512002
-5.7240005 1.3472899 -0.27512002
-6.0740004 1.04729 -0.22512002
-6.0240002 1.04729 -0.17512003
-6.0240002 1.0972899 -0.22512002
-6.0740004 1.04729 -0.12512003
-6.0740004 1.0972899 -0.12512003
-5.9740005 1.0972899 -0.22512002
-5.9740005 1.0972899 -0.17512003
-5.9240003 1.0972899 -0.22512002
-5.9740005 1.0972899 -0.075120024
-5.9240003 1.14729 -0.22512002
-5.9240003 1.14729 -0.17512003
-5.9740005 1.14729 -0.12512003
-5.9240003 1.14729 -0.12512003
-5.9240003 1.14729 -0.075120024
-5.9240003 1.1972899 -0.12512003
-5.8740001 1.1972899 -0.22512002
-5.8740001 1.1972899 -0.17512003
-5.8240004 1.14729 -0.17512003
-5.8240004 1.1972899 -0.17512003
-5.8240004 1.1972899 -0.075120024
-5.7740002 1.1972899 -0.075120024
-5.8240004 1.24729 -0.12512003
-5.8240004 1.3472899 -0.17512003
-5.7740002 1.29729 -0.22512002
-5.7240005 1.24729 -0.17512003
-5.7240005 1.29729 -0.17512003
-5.7240005 1.29729 -0.12512003
-5.7240005 1.29729 -0.075120024
-5.7740002 1.3472899 -0.22512002
-5.7740002 1.39729 -0.17512003
-5.7240005 1.3472899 -0.17512003
-5.7240005 1.3472899 -0.12512003
-5.9740005 1.59729 -0.27512002
-5.8740001 1.79729 -0.52512002
-5.8240004 1.49729 -0.17512003
-5.7740002 1.4472899 -0.17512003
-5.6240001 1.0972899 -0.47512004
-5.5740004 1.14729 -0.37512001
-5.5740004 1.1972899 -0.27512002
-5.6240001 1.24729 -0.27512002
-5.6240001 1.29729 -0.27512002
-5.6240001 1.39729 -0.42512003
-5.5740004 1.29729 -0.37512001
-5.5740004 1.3472899 -0.42512003
-5.5740004 1.3472899 -0.37512001
-5.5240002 1.3472899 -0.37512001
-5.5740004 1.39729 -0.27512002
-5.5240002 1.3472899 -0.27512002
-5.4240003 1.04729 -0.62512004
-5.4740005 1.04729 -0.47512004
-5.4240003 1.04729 -0.47512004
-5.4740005 1.0972899 -0.32512003
-5.4740005 1.0972899 -0.27512002
-5.4240003 1.14729 -0.32512003
-5.4240003 1.1972899 -0.27512002
-5.3740001 1.0972899 -0.27512002
-5.3740001 1.14729 -0.32512003
-5.4740005 1.29729 -0.37512001
-5.4740005 1.29729 -0.27512002
-5.4740005 1.3472899 -0.27512002
-5.4740005 1.39729 -0.27512002
-5.3240004 1.24729 -0.32512003
-5.3240004 1.3472899 -0.32512003
-5.5240002 1.14729 -0.17512003
-5.6740003 1.3472899 -0.12512003
-5.5740004 1.24729 -0.17512003
-5.5740004 1.39729 -0.22512002
-5.5740004 1.39729 -0.17512003
-5.5240002 1.3472899 -0.17512003
-5.5740004 1.3472899 -0.12512003
-5.5740004 1.39729 -0.075120024
-5.5240002 1.39729 -0.12512003
-5.5240002 1.39729 -0.075120024
-5.6240001 1.3472899 -0.025120022
-5.6240001 1.3472899 0.024879979
-5.6740003 1.3472899 0.12487998
-5.6240001 1.3472899 0.12487998
-5.5740004 1.3472899 0.024879979
-5.5740004 1.39729 -0.025120022
-5.5240002 1.3472899 -0.025120022
-5.5240002 1.3472899 0.024879979
-5.5740004 1.3472899 0.074879982
-5.5740004 1.39729 0.074879982
-5.5240002 1.39729 0.074879982
-5.4740005 1.0972899 -0.17512003
-5.4240003 1.1972899 -0.17512003
-5.4740005 1.1972899 0.074879982
-5.3740001 1.0972899 0.074879982
-5.4740005 1.24729 -0.17512003
-5.4240003 1.29729 -0.17512003
-5.4240003 1.3472899 -0.17512003
-5.4740005 1.39729 -0.075120024
-5.3240004 1.3472899 -0.12512003
-5.3240004 1.39729 -0.12512003
-5.4740005 1.39729 0.024879979
-5.4240003 1.39729 0.024879979
-5.4740005 1.39729 0.074879982
-5.4240003 1.39729 0.074879982
-5.4240003 1.39729 0.12487998
-5.3240004 1.3472899 -0.025120022
-5.3240004 1.3472899 0.074879982
-5.3240004 1.3472899 0.12487998
-5.5240002 1.49729 -0.52512002
-5.5240002 1.54729 -0.57512003
-5.5240002 1.59729 -0.57512003
-5.5240002 1.59729 -0.47512004
-5.5240002 1.49729 -0.42512003
-5.5240002 1.54729 -0.42512003
-5.5240002 1.59729 -0.42512003
-5.5240002 1.54729 -0.32512003
-5.5740004 1.64729 -0.37512001
-5.4740005 1.4472899 -0.57512003
-5.3740001 1.54729 -0.37512001
-5.3740001 1.64729 -0.47512004
-5.6740003 1.4472899 -0.17512003
-5.6240001 1.4472899 -0.17512003
-5.5740004 1.4472899 -0.12512003
-5.5740004 1.4472899 0.074879982
-5.8240004 1.79729 0.27487999
-5.6240001 1.3472899 0.17487998
-5.6240001 1.3472899 0.22487998
-5.5740004 1.29729 0.32487997
-5.5740004 1.3472899 0.17487998
-5.5740004 1.3472899 0.22487998
-5.5740004 1.39729 0.17487998
-5.5240002 1.39729 0.17487998
-5.5740004 1.3472899 0.37487999
-5.3740001 1.04729 0.22487998
-5.3240004 1.1972899 0.17487998
-5.3240004 1.14729 0.32487997
-5.3740001 1.14729 0.47487998
-5.3240004 1.14729 0.47487998
-5.3240004 1.1972899 0.47487998
-5.4240003 1.3472899 0.22487998
-5.3240004 1.24729 0.22487998
-5.3740001 1.3472899 0.17487998
-5.5240002 1.59729 0.22487998
-5.6240001 1.6972899 0.22487998
-5.6240001 1.64729 0.32487997
-6.0740004 1.84729 -0.52512002
-5.7740002 1.99729 -0.47512004
-5.7740002 1.89729 0.12487998
-5.9740005 2.4972899 -0.47512004
-5.9240003 2.5472901 -0.32512003
-5.7240005 2.34729 -0.47512004
-5.8240004 2.34729 -0.37512001
-5.6240001 1.89729 -0.62512004
-5.6740003 1.89729 -0.52512002
-5.6240001 1.84729 -0.52512002
-5.6740003 1.84729 -0.37512001
-5.6740003 1.89729 -0.42512003
-5.6740003 1.89729 -0.37512001
-5.6240001 1.89729 -0.37512001
-5.6740003 1.84729 -0.27512002
-5.4740005 1.84729 -0.32512003
-5.6740003 1.84729 -0.22512002
-5.6740003 1.89729 -0.17512003
-5.6240001 1.89729 -0.22512002
-5.6240001 1.89729 -0.17512003
-5.6740003 1.84729 -0.075120024
-5.6740003 1.89729 -0.075120024
-5.6740003 1.89729 -0.025120022
-5.6740003 1.89729 0.024879979
-5.6740003 1.84729 0.074879982
-5.6740003 1.89729 0.074879982
-5.6740003 1.9472899 0.024879979
-5.6240001 1.9472899 0.074879982
-5.6240001 1.9472899 0.12487998
-5.6740003 2.4472899 -0.47512004
-5.5740004 2.4972899 -0.47512004
-5.5740004 2.59729 -0.47512004
-5.6740003 2.4472899 -0.37512001
-6.0240002 2.09729 0.52487999
-6.0240002 2.14729 0.52487999
-5.9740005 2.09729 0.37487999
-5.9240003 2.0472901 0.37487999
-5.9240003 2.09729 0.47487998
-5.9740005 2.1972899 0.37487999
-5.9740005 2.1972899 0.42488
-5.9240003 2.14729 0.37487999
-5.8740001 1.89729 0.17487998
-5.7740002 1.84729 0.17487998
-5.7240005 1.84729 0.22487998
-5.8240004 1.9472899 0.52487999
-5.8740001 2.09729 0.42488
-5.8240004 2.09729 0.37487999
-5.8740001 2.0472901 0.52487999
-5.8740001 2.14729 0.52487999
-5.8240004 2.1972899 0.52487999
-5.7740002 2.09729 0.37487999
-5.7740002 2.0472901 0.47487998
-6.0240002 1.99729 0.57488
-6.0240002 1.9472899 0.82488
-6.0740004 2.0472901 0.62488002
-6.0740004 2.0472901 0.72487998
-6.0740004 2.1972899 0.62488002
-6.0740004 2.14729 0.72487998
-5.9740005 2.09729 0.72487998
-5.9740005 2.14729 0.67487997
-6.0740004 2.09729 0.82488
-5.9740005 2.09729 0.77487999
-5.9740005 2.1972899 0.77487999
-5.8740001 1.99729 0.62488002
-5.8240004 2.0472901 0.57488
-5.8240004 2.14729 0.67487997
-5.9740005 2.2972901 0.37487999
-5.9240003 2.2972901 0.37487999
-5.9240003 2.2972901 0.42488
-5.9240003 2.2972901 0.52487999
-5.9240003 2.34729 0.42488
-5.9240003 2.39729 0.52487999
-5.9240003 2.4972899 0.27487999
-5.9240003 2.4472899 0.37487999
-5.9240003 2.4472899 0.42488
-5.9240003 2.4472899 0.52487999
-5.9240003 2.4972899 0.47487998
-5.9240003 2.5472901 0.47487998
-5.8740001 2.2472899 0.37487999
-5.8740001 2.2972901 0.42488
-5.8740001 2.2472899 0.47487998
-5.8740001 2.2472899 0.52487999
-5.8740001 2.39729 0.37487999
-5.8740001 2.5472901 0.42488
-5.8740001 2.5472901 0.52487999
-6.0740004 2.2972901 0.62488002
-6.0740004 2.2472899 0.72487998
-5.9740005 2.2472899 0.62488002
-5.9240003 2.2972901 0.67487997
-5.9240003 2.39729 0.62488002
-5.9740005 2.39729 0.72487998
-6.0740004 2.2472899 0.77487999
-6.0240002 2.2472899 0.77487999
-5.9240003 2.34729 0.77487999
-5.9740005 2.4972899 0.62488002
-5.9240003 2.4472899 0.62488002
-5.9240003 2.4972899 0.57488
-5.9240003 2.4472899 0.67487997
-5.9240003 2.4972899 0.77487999
-5.8740001 2.34729 0.72487998
-5.8740001 2.39729 0.72487998
-5.8740001 2.4472899 0.62488002
-5.8740001 2.4972899 0.62488002
-5.8240004 2.5472901 0.72487998
-5.6740003 1.89729 0.17487998
-5.6240001 1.89729 0.17487998
-5.6740003 1.89729 0.27487999
-5.6740003 1.89729 0.47487998
-5.1240001 1.1972899 -0.52512002
-5.2240005 1.14729 -0.27512002
-5.1240001 1.04729 -0.27512002
-5.1740003 1.14729 -0.42512003
-5.1740003 1.1972899 -0.27512002
-5.2240005 1.29729 -0.52512002
-5.2240005 1.3472899 -0.62512004
-5.2240005 1.3472899 -0.57512003
-5.2740002 1.3472899 -0.52512002
-5.2740002 1.3472899 -0.47512004
-5.1240001 1.29729 -0.62512004
-5.1740003 1.29729 -0.52512002
-5.2240005 1.29729 -0.42512003
-5.2740002 1.29729 -0.32512003
-5.2740002 1.29729 -0.27512002
-5.2240005 1.29729 -0.27512002
-5.2740002 1.3472899 -0.42512003
-5.2240005 1.3472899 -0.37512001
-5.2240005 1.39729 -0.42512003
-5.2740002 1.3472899 -0.32512003
-5.2740002 1.39729 -0.32512003
-5.1240001 1.24729 -0.42512003
-5.1240001 1.24729 -0.37512001
-5.1740003 1.29729 -0.32512003
-5.1240001 1.3472899 -0.37512001
-5.0240002 1.14729 -0.62512004
-4.9240003 1.04729 -0.52512002
-4.9240003 1.04729 -0.47512004
-4.9240003 1.1972899 -0.57512003
-4.9240003 1.1972899 -0.47512004
-5.0740004 1.1972899 -0.27512002
-4.9740005 1.0972899 -0.42512003
-4.9240003 1.0972899 -0.37512001
-4.9740005 1.0972899 -0.27512002
-4.9240003 1.04729 -0.27512002
-4.9240003 1.0972899 -0.32512003
-4.9740005 1.1972899 -0.42512003
-4.9240003 1.14729 -0.27512002
-5.0740004 1.29729 -0.47512004
-5.0240002 1.24729 -0.47512004
-5.0240002 1.3472899 -0.47512004
-4.9240003 1.29729 -0.47512004
-4.9240003 1.39729 -0.62512004
-4.9740005 1.3472899 -0.47512004
-4.9240003 1.3472899 -0.47512004
-5.0740004 1.24729 -0.37512001
-4.9740005 1.29729 -0.32512003
-4.9240003 1.39729 -0.42512003
-5.2240005 1.39729 -0.22512002
-5.2740002 1.3472899 -0.12512003
-5.2740002 1.3472899 -0.075120024
-5.2240005 1.39729 -0.075120024
-5.1740003 1.29729 -0.075120024
-5.1240001 1.3472899 -0.12512003
-5.2740002 1.3472899 -0.025120022
-5.2740002 1.3472899 0.024879979
-5.2240005 1.39729 0.074879982
-5.1740003 1.29729 0.024879979
-5.1740003 1.3472899 -0.025120022
-5.1240001 1.3472899 0.024879979
-5.1740003 1.3472899 0.074879982
-5.1240001 1.3472899 0.074879982
-4.9240003 1.04729 -0.22512002
-5.0240002 1.14729 0.12487998
-4.9240003 1.14729 0.12487998
-5.0740004 1.29729 -0.22512002
-5.0240002 1.29729 -0.12512003
-5.0240002 1.3472899 -0.075120024
-4.9240003 1.29729 -0.22512002
-4.9740005 1.29729 -0.12512003
-4.9240003 1.29729 -0.12512003
-4.9740005 1.3472899 -0.12512003
-5.0240002 1.29729 -0.025120022
-5.0240002 1.29729 0.024879979
-5.0740004 1.3472899 -0.025120022
-5.0240002 1.3472899 0.024879979
-5.0740004 1.3472899 0.12487998
-5.0240002 1.3472899 0.074879982
-5.0240002 1.3472899 0.12487998
-4.9240003 1.29729 0.024879979
-4.9240003 1.29729 0.074879982
-5.2740002 1.49729 -0.47512004
-5.1240001 1.4472899 -0.62512004
-5.1740003 1.59729 -0.62512004
-5.2240005 1.64729 -0.32512003
-5.0740004 1.4472899 -0.62512004
-5.0740004 1.49729 -0.62512004
-5.0240002 1.49729 -0.52512002
-5.0240002 1.54729 -0.62512004
-5.0240002 1.54729 -0.52512002
-4.9740005 1.49729 -0.62512004
-4.9740005 1.4472899 -0.47512004
-4.9740005 1.49729 -0.47512004
-4.9740005 1.59729 -0.62512004
-4.9740005 1.59729 -0.57512003
-4.9240003 1.59729 -0.57512003
-4.9740005 1.54729 -0.52512002
-4.9740005 1.59729 -0.52512002
-4.9240003 1.54729 -0.47512004
-5.0240002 1.4472899 -0.37512001
-5.0240002 1.54729 -0.42512003
-5.0240002 1.59729 -0.32512003
-5.0240002 1.59729 -0.27512002
-4.9740005 1.4472899 -0.37512001
-4.9740005 1.49729 -0.42512003
-4.9740005 1.54729 -0.37512001
-4.9740005 1.59729 -0.42512003
-4.9740005 1.59729 -0.37512001
-5.0240002 1.64729 -0.47512004
-4.9740005 1.64729 -0.62512004
-4.9740005 1.64729 -0.52512002
-4.9740005 1.64729 -0.47512004
-4.9240003 1.64729 -0.47512004
-4.9240003 1.6972899 -0.52512002
-4.9240003 1.74729 -0.62512004
-4.9240003 1.79729 -0.57512003
-4.9240003 1.74729 -0.47512004
-5.0240002 1.64729 -0.37512001
-5.0240002 1.6972899 -0.37512001
-5.0740004 1.64729 -0.32512003
-4.9740005 1.64729 -0.42512003
-4.9740005 1.64729 -0.37512001
-4.9240003 1.64729 -0.37512001
-4.9740005 1.64729 -0.32512003
-4.9740005 1.6972899 -0.27512002
-4.9240003 1.6972899 -0.32512003
-4.9240003 1.6972899 -0.27512002
-4.9740005 1.74729 -0.42512003
-4.9740005 1.74729 -0.37512001
-4.9240003 1.74729 -0.42512003
-4.9240003 1.74729 -0.37512001
-4.9240003 1.79729 -0.37512001
-4.9740005 1.74729 -0.32512003
-4.9740005 1.74729 -0.27512002
-4.9240003 1.74729 -0.32512003
-4.9240003 1.79729 -0.27512002
-5.2240005 1.4472899 -0.22512002
-5.1240001 1.6972899 -0.22512002
-5.0240002 1.6972899 -0.17512003
-4.9740005 1.64729 -0.22512002
-4.9240003 1.74729 -0.22512002
-4.9240003 1.79729 -0.17512003
-4.8740001 1.0972899 -0.57512003
-4.8740001 1.04729 -0.47512004
-4.8740001 1.0972899 -0.47512004
-4.8240004 1.04729 -0.52512002
-4.8240004 1.0972899 -0.47512004
-4.8740001 1.1972899 -0.62512004
-4.7740002 1.0972899 -0.57512003
-4.7740002 1.04729 -0.47512004
-4.7740002 1.0972899 -0.52512002
-4.7240005 1.0972899 -0.47512004
-4.7240005 1.1972899 -0.57512003
-4.7740002 1.1972899 -0.52512002
-4.7740002 1.1972899 -0.47512004
-4.7240005 1.1972899 -0.47512004
-4.8740001 1.04729 -0.42512003
-4.8740001 1.04729 -0.37512001
-4.8740001 1.0972899 -0.42512003
-4.8740001 1.0972899 -0.37512001
-4.8740001 1.04729 -0.32512003
-4.8740001 1.0972899 -0.32512003
-4.8740001 1.14729 -0.37512001
-4.8740001 1.14729 -0.27512002
-4.8240004 1.14729 -0.32512003
-4.7740002 1.1972899 -0.42512003
-4.8240004 1.24729 -0.52512002
-4.8240004 1.29729 -0.47512004
-4.8240004 1.3472899 -0.62512004
-4.7740002 1.24729 -0.62512004
-4.7740002 1.24729 -0.52512002
-4.7740002 1.29729 -0.47512004
-4.7240005 1.29729 -0.52512002
-4.7240005 1.29729 -0.47512004
-4.7740002 1.39729 -0.52512002
-4.7740002 1.39729 -0.47512004
-4.8240004 1.29729 -0.42512003
-4.8240004 1.29729 -0.37512001
-4.8240004 1.24729 -0.27512002
-4.8240004 1.29729 -0.32512003
-4.8240004 1.29729 -0.27512002
-4.8240004 1.3472899 -0.37512001
-4.8740001 1.3472899 -0.27512002
-4.7740002 1.24729 -0.42512003
-4.7740002 1.29729 -0.37512001
-4.7240005 1.24729 -0.42512003
-4.7240005 1.24729 -0.37512001
-4.7240005 1.29729 -0.42512003
-4.6740003 1.04729 -0.57512003
-4.6240001 1.04729 -0.47512004
-4.6240001 1.0972899 -0.47512004
-4.6240001 1.14729 -0.57512003
-4.6240001 1.14729 -0.47512004
-4.6240001 1.1972899 -0.47512004
-4.5740004 1.04729 -0.57512003
-4.5240002 1.0972899 -0.57512003
-4.5240002 1.1972899 -0.62512004
-4.5740004 1.14729 -0.47512004
-4.6240001 1.0972899 -0.32512003
-4.5740004 1.1972899 -0.32512003
-4.6740003 1.29729 -0.47512004
-4.6740003 1.39729 -0.47512004
-4.5740004 1.29729 -0.52512002
-4.5240002 1.24729 -0.47512004
-4.5240002 1.3472899 -0.47512004
-4.6740003 1.24729 -0.37512001
-4.6740003 1.3472899 -0.32512003
-4.5740004 1.29729 -0.32512003
-4.5240002 1.39729 -0.32512003
-4.8740001 1.0972899 -0.22512002
-4.8240004 1.1972899 -0.17512003
-4.8240004 1.14729 0.12487998
-4.7740002 1.1972899 0.12487998
-4.8240004 1.24729 -0.22512002
-4.8240004 1.29729 -0.22512002
-4.8240004 1.29729 -0.17512003
-4.8740001 1.29729 -0.12512003
-4.8740001 1.29729 -0.075120024
-4.8240004 1.24729 -0.075120024
-4.8240004 1.29729 -0.12512003
-4.8240004 1.29729 -0.075120024
-4.8240004 1.3472899 -0.17512003
-4.8740001 1.3472899 -0.075120024
-4.7740002 1.29729 -0.17512003
-4.8740001 1.29729 0.024879979
-4.8240004 1.29729 -0.025120022
-4.8240004 1.29729 0.024879979
-4.8740001 1.29729 0.12487998
-4.8240004 1.29729 0.074879982
-4.8240004 1.29729 0.12487998
-4.8740001 1.3472899 0.024879979
-4.8240004 1.39729 0.074879982
-4.7240005 1.29729 0.024879979
-4.7240005 1.24729 0.12487998
-4.7240005 1.3472899 0.12487998
-4.6240001 1.24729 0.12487998
-4.6240001 1.29729 0.12487998
-4.6240001 1.39729 0.12487998
-4.8740001 1.49729 -0.62512004
-4.8240004 1.54729 -0.52512002
-4.7740002 1.54729 -0.47512004
-4.8240004 1.4472899 -0.42512003
-4.7740002 1.49729 -0.42512003
-4.8240004 1.64729 -0.47512004
-4.8240004 1.6972899 -0.47512004
-4.8740001 1.74729 -0.62512004
-4.8740001 1.74729 -0.57512003
-4.8740001 1.74729 -0.52512002
-4.8740001 1.79729 -0.52512002
-4.8240004 1.79729 -0.47512004
-4.8740001 1.74729 -0.42512003
-4.8740001 1.74729 -0.37512001
-4.8740001 1.79729 -0.32512003
-4.8740001 1.79729 -0.27512002
-4.7240005 1.79729 -0.37512001
-4.6240001 1.49729 -0.47512004
-4.5740004 1.49729 -0.52512002
-4.5240002 1.54729 -0.47512004
-4.6740003 1.49729 -0.32512003
-4.6740003 1.59729 -0.42512003
