# .PCD v0.7 - Point Cloud Data file format
VERSION 0.7
FIELDS x y z
SIZE 4 4 4
TYPE F F F
COUNT 1 1 1
WIDTH 1522
HEIGHT 1
VIEWPOINT 0 0 0 1 0 0 0
POINTS 1522
DATA ascii
2.9359999 -5.2587099 0.22087997
2.9359999 -5.2087102 0.17087997
2.9859998 -5.2087102 0.22087997
3.036 -5.2087102 0.32087997
3.086 -5.15871 0.52087998
3.036 -5.2087102 0.67087996
2.9859998 -5.0587101 0.57088
3.036 -5.0587101 0.62088001
3.336 -5.2587099 -0.32912004
3.4359999 -5.1087103 -0.42912003
3.3859999 -5.2087102 -0.12912004
3.4859998 -4.9587102 -0.12912004
3.3859999 -4.6087103 -0.27912003
3.3859999 -4.5587101 -0.32912004
3.4359999 -4.5587101 -0.27912003
3.536 -4.65871 -0.37912002
3.336 -4.8087101 -0.079120032
3.4859998 -4.7587099 -0.12912004
3.336 -4.5087099 0.020879971
3.4359999 -4.6087103 0.070879973
3.6859999 -4.8587103 -0.12912004
3.536 -4.6087103 -0.12912004
3.4359999 -4.5587101 0.27087998
3.786 -4.5087099 0.22087997
4.2360001 -8.1087103 0.52087998
4.336 -8.1587105 0.37087998
4.336 -8.1087103 0.37087998
4.1859999 -8.1087103 0.57088
4.336 -8.1087103 0.67087996
4.3860002 -8.1087103 0.72087997
4.3860002 -7.7087102 0.22087997
5.5359998 -8.1587105 0.92087996
5.336 -7.7587104 0.82088
5.6360002 -7.7587104 0.62088001
5.6859999 -7.7087102 0.62088001
5.6859999 -7.7587104 0.82088
5.4359999 -7.8087101 0.97087997
5.336 -7.7587104 1.22088
5.6360002 -7.7587104 0.97087997
5.5359998 -7.7087102 1.27088
5.7859998 -8.0087099 0.92087996
5.7360001 -7.8087101 1.02088
4.1859999 -7.5087099 0.020879971
4.4359999 -7.6087103 -0.02912003
4.4860001 -7.5587101 0.070879973
4.5359998 -7.6087103 -0.02912003
4.836 -7.5087099 -0.17912003
4.3860002 -7.65871 0.27087998
4.4359999 -7.5587101 0.17087997
4.3860002 -7.5587101 0.52087998
4.4860001 -7.5087099 0.37087998
4.4860001 -7.5087099 0.62088001
4.4359999 -7.5087099 0.67087996
4.5359998 -7.5087099 0.22087997
4.586 -7.5087099 0.22087997
4.6360002 -7.5587101 0.17087997
4.586 -7.5087099 0.52087998
4.7360001 -7.5087099 0.22087997
4.7360001 -7.5587101 0.32087997
4.836 -7.5087099 0.27087998
4.7859998 -7.5087099 0.52087998
4.5359998 -7.5087099 0.67087996
4.586 -7.5087099 0.67087996
4.6859999 -7.5087099 0.62088001
4.6360002 -7.5087099 0.72087997
4.586 -7.5087099 0.82088
4.836 -7.5087099 0.67087996
4.836 -7.5087099 0.72087997
4.7859998 -7.5087099 0.82088
4.4359999 -6.6087103 -0.37912002
5.0359998 -7.6087103 -0.37912002
5.2360001 -7.4587102 -0.42912003
5.2360001 -7.4587102 -0.37912002
5.086 -7.65871 -0.079120032
5.0359998 -7.5587101 -0.17912003
5.0359998 -7.6087103 -0.02912003
5.086 -7.5587101 -0.02912003
5.086 -7.5087099 0.070879973
5.086 -7.4587102 0.070879973
5.1859999 -7.5087099 -0.079120032
5.2360001 -7.5587101 0.020879971
5.1859999 -7.4587102 -0.17912003
5.1859999 -7.2587099 -0.42912003
5.4860001 -7.4587102 -0.37912002
5.4860001 -7.5087099 0.020879971
5.4359999 -7.4587102 -0.17912003
5.336 -7.4587102 -0.02912003
5.3860002 -7.4587102 -0.02912003
5.5359998 -7.5087099 -0.02912003
5.5359998 -7.4587102 -0.079120032
5.586 -7.4587102 -0.079120032
5.6859999 -7.40871 -0.17912003
5.6360002 -7.15871 -0.42912003
4.9359999 -7.5587101 0.32087997
5.086 -7.3587103 0.32087997
4.9359999 -7.5087099 0.62088001
4.9860001 -7.5087099 0.57088
4.9860001 -7.5587101 0.72087997
4.9860001 -7.5087099 0.67087996
5.0359998 -7.6087103 0.92087996
5.1859999 -7.4587102 0.72087997
5.1859999 -7.3587103 0.62088001
5.3860002 -7.40871 0.27087998
5.4860001 -7.40871 0.42087999
5.5359998 -7.40871 0.42087999
5.586 -7.4587102 0.37087998
5.6859999 -7.40871 0.52087998
5.4860001 -7.3587103 0.72087997
5.336 -7.40871 0.77087998
5.6859999 -7.5087099 0.62088001
5.586 -7.3587103 0.72087997
5.336 -7.2587099 0.62088001
5.336 -7.2587099 0.77087998
5.6859999 -6.3587103 0.17087997
5.4860001 -7.5587101 1.12088
5.3860002 -7.2087102 0.97087997
5.5359998 -5.5587101 -0.32912004
5.2859998 -6.0087099 0.17087997
5.2360001 -6.0587101 0.32087997
5.2859998 -6.0087099 0.42087999
5.2360001 -6.0087099 0.52087998
5.2859998 -5.9587102 0.47087997
5.3860002 -5.9587102 0.17087997
5.4860001 -5.9587102 0.17087997
5.4359999 -5.9587102 0.32087997
5.3860002 -5.90871 0.52087998
5.4359999 -5.90871 0.42087999
5.4860001 -5.90871 0.47087997
5.586 -6.0087099 0.22087997
5.336 -5.90871 0.57088
5.4860001 -5.90871 0.57088
5.4860001 -4.5087099 -0.37912002
5.4860001 -4.5087099 -0.17912003
5.6360002 -4.5087099 -0.17912003
5.7360001 -7.4587102 -0.32912004
5.8860002 -7.3087101 -0.12912004
5.7360001 -7.3587103 0.070879973
5.9359999 -7.3587103 0.020879971
5.836 -7.2087102 -0.32912004
5.8860002 -6.9587102 -0.17912003
5.7859998 -7.40871 0.42087999
5.7360001 -7.6087103 0.77087998
5.7360001 -7.40871 0.67087996
5.836 -7.3587103 0.72087997
5.8860002 -7.3587103 0.77087998
5.836 -7.3587103 0.87088001
5.9359999 -7.3087101 0.62088001
5.8860002 -7.1087103 0.37087998
5.9359999 -6.9587102 0.47087997
5.9359999 -7.0587101 0.57088
5.9359999 -6.9587102 0.72087997
5.9359999 -6.90871 0.87088001
5.8860002 -6.5087099 -0.12912004
5.8860002 -6.5587101 0.020879971
5.9359999 -6.6087103 -0.079120032
5.9860001 -6.5087099 -0.079120032
5.7859998 -6.15871 -0.079120032
5.8860002 -6.1087103 -0.12912004
5.836 -6.2587099 0.070879973
5.9359999 -6.40871 -0.12912004
5.9359999 -6.2587099 -0.079120032
5.8860002 -6.7087102 0.52087998
5.9359999 -6.8587103 0.22087997
5.9359999 -6.7587099 0.22087997
5.9359999 -6.5587101 0.22087997
5.9860001 -6.5587101 0.52087998
5.9359999 -6.7587099 0.62088001
5.9359999 -6.7087102 0.72087997
5.9359999 -6.6087103 0.57088
5.9359999 -6.5087099 0.57088
5.9359999 -6.40871 0.17087997
5.9359999 -6.40871 0.32087997
5.9359999 -6.40871 0.37087998
5.9359999 -6.15871 0.47087997
5.8860002 -6.3587103 0.57088
5.8860002 -6.3087101 0.82088
5.8860002 -6.2087102 0.57088
5.8860002 -6.2087102 0.67087996
5.7360001 -7.6087103 1.12088
5.7859998 -7.5087099 1.02088
5.7360001 -7.5587101 1.27088
5.7360001 -7.4587102 0.97087997
5.7360001 -7.4587102 1.02088
5.9359999 -6.5087099 0.97087997
5.7859998 -5.7587099 -0.32912004
5.8860002 -5.9587102 -0.079120032
5.8860002 -5.90871 0.070879973
5.836 -5.8087101 -0.12912004
5.8860002 -5.7587099 -0.12912004
5.8860002 -5.7087102 -0.12912004
5.836 -5.7087102 0.070879973
5.9359999 -5.9587102 -0.12912004
5.9359999 -5.8587103 -0.079120032
5.836 -5.40871 -0.27912003
5.8860002 -5.5587101 -0.12912004
5.8860002 -5.5587101 -0.079120032
5.836 -5.6087103 -0.02912003
5.836 -5.6087103 0.12087997
5.836 -5.5087099 0.070879973
5.8860002 -5.40871 -0.22912003
5.8860002 -5.4587102 -0.079120032
5.8860002 -5.3587103 -0.12912004
5.8860002 -5.3087101 -0.12912004
5.836 -5.40871 0.070879973
5.836 -5.3087101 -0.02912003
5.7360001 -5.7087102 0.47087997
5.9359999 -6.0587101 0.47087997
5.7360001 -5.5087099 0.17087997
5.7859998 -5.5087099 0.22087997
5.7360001 -5.5587101 0.37087998
5.7360001 -5.5587101 0.47087997
5.7360001 -5.5087099 0.47087997
5.7360001 -5.5087099 0.52087998
5.7360001 -5.4587102 0.17087997
5.7360001 -5.3087101 0.17087997
5.7360001 -5.4587102 0.47087997
5.7360001 -5.4587102 0.52087998
5.7360001 -5.3587103 0.47087997
5.7360001 -5.3087101 0.47087997
5.7360001 -5.6087103 0.62088001
5.7859998 -5.65871 0.72087997
5.7360001 -5.5587101 0.57088
5.7360001 -5.5587101 0.62088001
5.7360001 -5.5587101 0.72087997
5.7360001 -5.6087103 0.92087996
5.7360001 -5.4587102 0.57088
5.7859998 -5.3587103 0.72087997
5.7859998 -5.3087101 0.67087996
5.7859998 -5.40871 0.92087996
5.836 -4.90871 -0.27912003
5.8860002 -5.2087102 -0.079120032
5.836 -5.15871 -0.12912004
5.836 -5.2587099 0.070879973
5.836 -5.2587099 0.12087997
5.836 -5.2087102 0.070879973
5.836 -5.1087103 0.070879973
5.7360001 -5.0587101 0.12087997
5.836 -5.0087099 -0.02912003
5.8860002 -4.65871 -0.27912003
5.8860002 -4.5587101 -0.42912003
5.8860002 -4.7587099 -0.12912004
5.7360001 -4.8087101 0.12087997
5.8860002 -4.5087099 -0.17912003
5.7360001 -4.6087103 0.12087997
5.7859998 -4.5087099 0.12087997
5.7859998 -5.2087102 0.22087997
5.7360001 -5.2087102 0.27087998
5.7360001 -5.2087102 0.42087999
5.7360001 -5.1087103 0.37087998
5.7360001 -5.1087103 0.52087998
5.7859998 -5.0087099 0.22087997
5.7360001 -4.9587102 0.17087997
5.7859998 -4.9587102 0.22087997
5.7859998 -5.0087099 0.47087997
5.7859998 -5.0087099 0.52087998
5.7360001 -4.9587102 0.42087999
5.7360001 -4.9587102 0.52087998
5.7859998 -5.2587099 0.57088
5.7859998 -5.2087102 0.67087996
5.7360001 -5.15871 0.57088
5.7360001 -5.1087103 0.67087996
5.7360001 -4.8587103 0.17087997
5.7360001 -4.7587099 0.27087998
5.7360001 -4.7087102 0.32087997
5.7360001 -4.8587103 0.42087999
5.7360001 -4.7587099 0.42087999
5.7859998 -4.7087102 0.52087998
5.7859998 -4.5087099 0.42087999
5.7859998 -4.5587101 0.47087997
5.7859998 -4.5087099 0.52087998
5.7859998 -4.8587103 0.62088001
5.7859998 -4.8587103 0.77087998
5.7859998 -4.65871 0.62088001
5.7859998 -4.5087099 0.62088001
5.7859998 -4.6087103 0.77087998
5.7859998 -4.5087099 0.92087996
5.7859998 -5.15871 1.02088
5.7859998 -4.8087101 0.97087997
5.9860001 -3.5087101 -0.67912006
5.8860002 -1.40871 -0.67912006
5.1859999 1.34129 -0.67912006
5.1859999 1.44129 -0.67912006
5.1859999 1.54129 -0.67912006
5.1859999 1.59129 -0.67912006
5.8860002 -1.25871 -0.67912006
5.9359999 -1.15871 -0.67912006
5.9359999 -0.80871004 -0.67912006
5.9860001 -0.35871005 -0.67912006
5.836 0.29128999 -0.67912006
5.9860001 -0.0087100323 -0.67912006
5.9860001 0.091289967 -0.67912006
5.9359999 0.19128998 -0.67912006
5.9359999 0.29128999 -0.67912006
5.9860001 0.44128996 -0.72912002
6.0359998 0.39128998 -0.67912006
6.0359998 0.49128997 -0.67912006
5.9359999 0.59129 -0.67912006
5.9860001 0.69128996 -0.67912006
6.0359998 0.59129 -0.67912006
6.0359998 0.69128996 -0.67912006
5.8860002 0.79128999 -0.67912006
5.836 0.89129001 -0.67912006
5.9860001 0.89129001 -0.67912006
6.0359998 0.79128999 -0.67912006
6.0359998 0.89129001 -0.67912006
5.9359999 0.99128997 -0.67912006
5.9359999 1.09129 -0.67912006
6.0359998 1.09129 -0.67912006
6.1859999 0.99128997 -0.72912002
6.2360001 1.09129 -0.72912002
6.086 1.19129 -0.67912006
6.2859998 1.19129 -0.72912002
6.2360001 1.29129 -0.72912002
6.2360001 1.49129 -0.67912006
6.3860002 1.29129 -0.77912003
6.336 1.29129 -0.72912002
6.3860002 1.3912899 -0.72912002
6.3860002 1.44129 -0.77912003
6.3860002 1.44129 -0.67912006
6.3860002 1.49129 -0.72912002
6.4359999 1.3912899 -0.67912006
6.4860001 1.34129 -0.72912002
6.4359999 1.44129 -0.72912002
6.4359999 1.49129 -0.67912006
6.2859998 1.8912899 -0.67912006
6.3860002 1.59129 -0.77912003
6.336 1.54129 -0.72912002
6.336 1.6412899 -0.72912002
6.3860002 1.6412899 -0.72912002
6.4860001 1.54129 -0.72912002
6.4860001 1.59129 -0.67912006
6.3860002 1.74129 -0.82912004
6.3860002 1.8912899 -0.82912004
6.336 1.84129 -0.72912002
6.4359999 1.79129 -0.67912006
0.93599987 -4.40871 -0.42912003
0.93599987 -4.40871 -0.37912002
0.93599987 -4.3587103 -0.37912002
1.0359999 -4.40871 -0.37912002
1.0859998 -4.4587102 -0.42912003
1.2859999 -4.4587102 -0.37912002
0.98599988 -4.4587102 -0.22912003
1.0359999 -4.40871 -0.12912004
0.93599987 -4.2587099 -0.12912004
0.93599987 -4.2587099 0.020879971
1.0359999 -4.2587099 0.020879971
1.0859998 -4.2587099 0.020879971
1.2359999 -4.2587099 -0.02912003
1.2859999 -4.15871 -0.02912003
0.98599988 -3.90871 -0.02912003
1.0859998 -3.90871 -0.02912003
1.1359999 -4.0587101 -0.02912003
1.1859999 -3.90871 -0.02912003
1.2859999 -3.90871 -0.02912003
1.3359998 -4.3087101 -0.02912003
1.3859999 -4.3087101 -0.02912003
1.4359999 -4.40871 -0.02912003
1.4859999 -4.3087101 -0.02912003
1.6359999 -4.3087101 -0.02912003
1.4359999 -3.7587101 -0.42912003
1.5359999 -3.8087101 -0.47912005
1.6859999 -3.8087101 -0.47912005
1.4859999 -3.90871 -0.079120032
1.3859999 -3.90871 -0.02912003
1.3859999 -3.7087102 -0.17912003
1.4859999 -3.7587101 -0.17912003
1.3859999 -3.7087102 0.020879971
1.5359999 -3.8087101 -0.17912003
1.5359999 -3.8587101 -0.079120032
1.5859998 -3.8587101 -0.079120032
1.6859999 -3.8587101 -0.079120032
1.6859999 -3.7587101 -0.17912003
0.93599987 -4.40871 0.22087997
0.98599988 -4.3587103 0.22087997
0.93599987 -4.2087102 0.22087997
0.93599987 -4.2587099 0.72087997
1.0359999 -4.1087103 0.62088001
0.93599987 -3.7087102 0.17087997
1.2859999 -3.7587101 0.62088001
1.3859999 -4.4587102 0.22087997
1.4859999 -3.90871 0.42087999
1.3859999 -3.7587101 0.22087997
1.4359999 -3.7087102 0.32087997
1.3859999 -3.8087101 0.42087999
1.3859999 -3.7587101 0.52087998
1.3859999 -3.7087102 0.47087997
1.3859999 -3.7087102 0.52087998
1.4859999 -3.8087101 0.42087999
1.4359999 -3.8587101 0.47087997
1.4359999 -3.8087101 0.47087997
1.4859999 -3.8087101 0.47087997
1.4359999 -3.7587101 0.42087999
1.4359999 -3.7087102 0.52087998
1.4859999 -3.7587101 0.52087998
1.6359999 -3.9587102 0.32087997
1.3859999 -3.7587101 0.62088001
1.0859998 -3.6087101 -0.42912003
1.0859998 -3.5587101 -0.42912003
1.0859998 -3.5087101 -0.42912003
0.98599988 -3.4587102 -0.42912003
0.93599987 -3.4587102 -0.32912004
1.1859999 -3.5087101 -0.42912003
1.2359999 -3.6087101 -0.42912003
1.2859999 -3.5087101 -0.42912003
0.93599987 -3.5087101 -0.17912003
1.0359999 -3.5587101 -0.17912003
0.98599988 -3.5587101 -0.02912003
1.0859998 -3.6087101 -0.02912003
0.93599987 -3.4587102 -0.12912004
0.98599988 -3.3087101 -0.079120032
1.0359999 -3.3087101 -0.17912003
1.0359999 -3.3587101 -0.079120032
1.0859998 -3.3587101 -0.079120032
0.93599987 -3.4587102 0.020879971
1.1359999 -3.6087101 -0.17912003
1.1859999 -3.6087101 -0.079120032
1.2859999 -3.65871 -0.17912003
1.2859999 -3.6087101 -0.079120032
1.2859999 -3.5087101 -0.079120032
1.1859999 -3.6087101 -0.02912003
1.1859999 -3.6087101 0.070879973
1.2859999 -3.5587101 0.070879973
1.1359999 -3.40871 -0.17912003
1.1859999 -3.3587101 -0.079120032
1.2359999 -3.4587102 -0.17912003
1.2859999 -3.40871 -0.079120032
0.93599987 -3.1087101 -0.27912003
1.0359999 -2.9587102 -0.42912003
1.0859998 -2.9587102 -0.42912003
1.1359999 -3.0087101 -0.42912003
1.1859999 -3.0087101 -0.42912003
1.2359999 -3.0087101 -0.42912003
0.93599987 -3.2587101 -0.17912003
0.98599988 -3.1087101 -0.079120032
1.0359999 -3.15871 -0.079120032
1.0859998 -3.15871 -0.079120032
0.93599987 -2.9587102 -0.079120032
1.0359999 -3.0087101 -0.079120032
1.1859999 -3.2087102 -0.079120032
1.2359999 -3.2587101 -0.079120032
1.2359999 -3.1087101 -0.079120032
1.1359999 -3.0587101 -0.079120032
1.1859999 -3.0587101 -0.079120032
1.1859999 -2.90871 -0.22912003
1.1359999 -2.90871 -0.079120032
1.2359999 -2.9587102 -0.22912003
1.2359999 -2.90871 -0.12912004
1.2859999 -2.9587102 -0.12912004
1.3859999 -3.5587101 -0.47912005
1.3359998 -3.65871 -0.42912003
1.3859999 -3.65871 -0.42912003
1.4859999 -3.65871 -0.42912003
1.4359999 -3.40871 -0.27912003
1.5359999 -3.5587101 -0.47912005
1.6359999 -3.6087101 -0.47912005
1.5859998 -3.65871 -0.42912003
1.6859999 -3.6087101 -0.42912003
1.6359999 -3.5587101 -0.27912003
1.5859998 -3.40871 -0.27912003
1.3359998 -3.6087101 -0.079120032
1.3359998 -3.5587101 -0.17912003
1.4359999 -3.65871 -0.17912003
1.4859999 -3.6087101 -0.079120032
1.3359998 -3.5587101 -0.02912003
1.4359999 -3.65871 -0.02912003
1.3859999 -3.40871 -0.079120032
1.4859999 -3.40871 -0.079120032
1.4359999 -3.3087101 -0.079120032
1.6859999 -3.6087101 -0.079120032
1.6359999 -3.6087101 -0.02912003
1.5359999 -3.40871 -0.079120032
1.5859998 -3.3087101 -0.079120032
1.6359999 -3.4587102 -0.079120032
1.6859999 -3.4587102 -0.079120032
1.6359999 -3.3087101 -0.12912004
1.4359999 -3.0587101 -0.47912005
1.4859999 -2.90871 -0.47912005
1.3359998 -2.9587102 -0.42912003
1.3859999 -2.9587102 -0.42912003
1.4359999 -2.90871 -0.42912003
1.5859998 -2.90871 -0.47912005
1.6359999 -2.90871 -0.42912003
1.3359998 -3.2587101 -0.079120032
1.3359998 -3.1087101 -0.079120032
1.3859999 -3.15871 -0.079120032
1.4859999 -3.2087102 -0.12912004
1.4359999 -3.1087101 -0.22912003
1.3359998 -3.0087101 -0.22912003
1.3859999 -3.0087101 -0.12912004
1.4359999 -3.0087101 -0.12912004
1.4359999 -2.90871 -0.22912003
1.5359999 -3.2087102 -0.22912003
1.5859998 -3.2087102 -0.12912004
1.6359999 -3.2087102 -0.22912003
1.6859999 -3.2587101 -0.12912004
1.5359999 -3.0087101 -0.12912004
1.5359999 -2.9587102 -0.22912003
1.5359999 -2.90871 -0.12912004
1.6359999 -3.0087101 -0.22912003
1.6359999 -3.0587101 -0.12912004
1.6859999 -3.0587101 -0.12912004
1.6359999 -2.90871 -0.12912004
1.6859999 -2.9587102 -0.12912004
1.1359999 -3.6087101 0.22087997
1.1859999 -3.65871 0.17087997
1.1859999 -3.65871 0.22087997
1.2859999 -3.65871 0.17087997
1.2859999 -3.65871 0.22087997
1.2359999 -3.65871 0.32087997
1.2859999 -3.5587101 0.27087998
1.1859999 -3.6087101 0.37087998
1.1859999 -3.6087101 0.47087997
1.2359999 -3.65871 0.37087998
1.2359999 -3.65871 0.42087999
1.2859999 -3.65871 0.37087998
1.2859999 -3.6087101 0.37087998
1.2359999 -3.65871 0.47087997
1.2359999 -3.6087101 0.47087997
1.2859999 -3.65871 0.47087997
1.2859999 -3.6087101 0.52087998
1.2859999 -3.5587101 0.42087999
1.3859999 -3.65871 0.27087998
1.3859999 -3.5587101 0.17087997
1.3859999 -3.5087101 0.22087997
1.3359998 -3.5587101 0.32087997
1.3359998 -3.6087101 0.42087999
1.3859999 -3.65871 0.42087999
1.3359998 -3.65871 0.47087997
1.3359998 -3.65871 0.52087998
1.3359998 -3.6087101 0.47087997
1.3359998 -3.6087101 0.52087998
1.3859999 -3.5587101 0.37087998
1.4359999 -3.65871 0.37087998
1.4359999 -3.65871 0.47087997
1.5859998 -3.5087101 0.27087998
1.8359998 -4.3587103 -0.17912003
1.7859999 -4.3087101 -0.02912003
1.8859999 -4.4587102 -0.02912003
1.8359998 -4.4587102 0.12087997
1.8859999 -4.4587102 0.12087997
1.9359999 -4.3087101 -0.079120032
1.9859999 -4.3087101 -0.079120032
2.086 -4.40871 -0.12912004
1.8359998 -3.90871 -0.17912003
1.7359999 -3.8587101 -0.17912003
1.7859999 -3.8587101 -0.17912003
1.7859999 -3.8087101 -0.079120032
1.8359998 -3.8087101 -0.079120032
1.9859999 -3.7587101 -0.079120032
2.086 -3.7087102 -0.12912004
2.4359999 -4.40871 -0.27912003
2.3859999 -4.2087102 -0.27912003
2.1359999 -4.40871 -0.079120032
2.1359999 -4.3087101 -0.079120032
2.2359998 -4.3087101 -0.079120032
2.286 -4.40871 0.070879973
2.286 -4.40871 0.12087997
2.286 -4.2587099 0.12087997
2.3859999 -4.4587102 -0.22912003
2.336 -4.40871 -0.12912004
2.336 -4.40871 0.020879971
2.3859999 -4.4587102 -0.02912003
2.3859999 -4.40871 0.12087997
2.3859999 -4.3587103 -0.02912003
2.3859999 -4.3587103 0.12087997
2.3859999 -4.2587099 -0.079120032
2.3859999 -4.2087102 -0.12912004
2.336 -4.2087102 0.12087997
2.1859999 -3.7087102 -0.42912003
2.1359999 -3.7087102 -0.27912003
2.2359998 -3.8587101 -0.27912003
2.286 -3.7587101 -0.42912003
2.2359998 -3.7087102 -0.27912003
2.3859999 -3.7087102 -0.42912003
2.4859998 -3.8087101 -0.27912003
2.1859999 -3.7087102 -0.12912004
2.2359998 -3.7587101 -0.12912004
2.4859998 -4.0087099 -0.079120032
2.3859999 -4.0587101 0.070879973
2.336 -3.8587101 -0.079120032
2.336 -3.7087102 -0.12912004
2.336 -3.8087101 0.070879973
1.7359999 -4.40871 0.17087997
1.8859999 -4.4587102 0.17087997
1.9859999 -4.4587102 0.22087997
2.036 -4.4587102 0.27087998
1.8859999 -3.7087102 0.32087997
2.286 -4.40871 0.22087997
2.2359998 -4.4587102 0.32087997
2.2359998 -4.40871 0.27087998
2.2359998 -4.3587103 0.17087997
2.286 -4.3087101 0.27087998
2.286 -4.40871 0.37087998
2.286 -4.4587102 0.47087997
2.286 -4.3587103 0.42087999
2.286 -4.3587103 0.52087998
2.2359998 -4.2087102 0.32087997
2.286 -4.2587099 0.27087998
2.286 -4.1087103 0.47087997
2.3859999 -4.4587102 0.22087997
2.3859999 -4.4587102 0.32087997
2.3859999 -4.3587103 0.17087997
2.336 -4.3587103 0.32087997
2.336 -4.4587102 0.42087999
2.336 -4.4587102 0.52087998
2.3859999 -4.1087103 0.32087997
2.336 -4.2587099 0.47087997
2.1859999 -4.4587102 0.62088001
2.2359998 -4.3587103 0.57088
2.2359998 -4.0587101 0.22087997
2.286 -3.90871 0.27087998
2.3859999 -4.0587101 0.22087997
2.336 -3.9587102 0.17087997
2.336 -4.0587101 0.47087997
2.336 -3.8587101 0.17087997
2.336 -3.8587101 0.22087997
2.336 -3.7087102 0.27087998
2.336 -3.7087102 0.42087999
2.4859998 -3.7587101 0.42087999
1.7359999 -3.6087101 -0.47912005
1.8359998 -3.4587102 -0.27912003
1.8359998 -3.40871 -0.27912003
1.9359999 -3.5087101 -0.42912003
2.036 -3.65871 -0.27912003
2.086 -3.5087101 -0.27912003
1.9859999 -3.40871 -0.27912003
1.7359999 -3.6087101 -0.079120032
1.8359998 -3.5087101 -0.079120032
1.7359999 -3.4587102 -0.079120032
1.7859999 -3.4587102 -0.079120032
1.7359999 -3.3087101 -0.22912003
1.7859999 -3.3587101 -0.12912004
1.8859999 -3.40871 -0.17912003
1.8859999 -3.4587102 -0.12912004
1.8359998 -3.3587101 -0.22912003
1.8859999 -3.3587101 -0.12912004
1.8359998 -3.40871 0.020879971
1.8359998 -3.40871 0.070879973
1.8859999 -3.40871 0.070879973
1.9359999 -3.6087101 -0.12912004
2.036 -3.5087101 -0.12912004
2.086 -3.5587101 -0.12912004
1.9359999 -3.40871 -0.22912003
1.9359999 -3.40871 -0.17912003
1.9859999 -3.40871 -0.22912003
1.9859999 -3.3587101 -0.12912004
2.036 -3.4587102 -0.12912004
2.036 -3.40871 -0.12912004
2.086 -3.3587101 -0.12912004
2.086 -3.3087101 -0.12912004
1.7359999 -2.90871 -0.42912003
1.7859999 -2.9587102 -0.32912004
1.7359999 -3.2587101 -0.12912004
1.7859999 -3.15871 -0.12912004
1.8359998 -3.2587101 -0.12912004
1.8359998 -3.2087102 -0.12912004
1.7359999 -3.0587101 -0.12912004
1.7359999 -2.90871 -0.12912004
1.8359998 -3.0587101 -0.12912004
1.8859999 -3.0087101 -0.12912004
1.8359998 -2.9587102 -0.12912004
1.9859999 -3.2587101 -0.12912004
1.9859999 -3.15871 -0.12912004
1.9359999 -3.0587101 -0.12912004
1.9859999 -2.90871 -0.12912004
2.036 -3.0587101 -0.12912004
2.036 -2.9587102 -0.17912003
2.4359999 -3.5087101 -0.27912003
2.1359999 -3.65871 -0.12912004
2.1859999 -3.5087101 -0.12912004
2.286 -3.65871 -0.12912004
2.1359999 -3.40871 -0.12912004
2.1859999 -3.40871 -0.12912004
2.1359999 -3.3087101 -0.12912004
2.1859999 -3.3087101 -0.12912004
2.286 -3.40871 -0.12912004
2.2359998 -3.3587101 -0.12912004
2.286 -3.3087101 -0.12912004
2.1359999 -3.3587101 0.12087997
2.3859999 -3.6087101 -0.12912004
2.336 -3.5587101 -0.12912004
2.4859998 -3.5087101 -0.12912004
2.3859999 -3.5587101 0.12087997
2.4359999 -3.5587101 0.070879973
2.3859999 -3.4587102 -0.22912003
2.336 -3.4587102 -0.12912004
2.3859999 -3.3587101 -0.12912004
2.4859998 -3.4587102 -0.17912003
2.4859998 -3.3587101 -0.17912003
2.4859998 -3.3087101 -0.17912003
2.3859999 -3.4587102 0.070879973
2.3859999 -3.40871 0.070879973
2.286 -3.1087101 -0.32912004
2.1859999 -3.0087101 -0.32912004
2.1359999 -2.90871 -0.32912004
2.3859999 -3.2087102 -0.32912004
2.1359999 -3.2587101 -0.12912004
2.2359998 -3.1087101 -0.12912004
2.1859999 -3.0587101 -0.17912003
2.2359998 -3.0587101 -0.17912003
2.286 -3.0087101 -0.17912003
2.2359998 -2.9587102 -0.17912003
2.336 -3.15871 -0.17912003
2.4359999 -3.2087102 -0.12912004
2.3859999 -3.0087101 -0.17912003
2.4359999 -3.0587101 -0.17912003
2.4359999 -3.0087101 -0.17912003
1.8859999 -3.5087101 0.32087997
1.9859999 -3.40871 0.17087997
2.086 -3.40871 0.22087997
1.9859999 -3.3087101 0.42087999
2.086 -3.3587101 0.42087999
2.1359999 -3.40871 0.27087998
2.2359998 -3.3587101 0.17087997
2.286 -3.3587101 0.32087997
2.286 -3.3087101 0.27087998
2.286 -3.4587102 0.37087998
2.286 -3.3087101 0.42087999
2.336 -3.65871 0.17087997
2.336 -3.65871 0.22087997
2.336 -3.5587101 0.27087998
2.4359999 -3.5087101 0.52087998
2.336 -3.4587102 0.17087997
2.336 -3.40871 0.27087998
2.336 -3.3587101 0.22087997
2.336 -3.3587101 0.27087998
2.336 -3.3587101 0.32087997
2.4359999 -3.3087101 0.22087997
2.4359999 -3.3087101 0.27087998
2.336 -3.3587101 0.42087999
2.336 -3.3587101 0.47087997
2.4359999 -3.3087101 0.52087998
1.0859998 -2.70871 -0.47912005
0.93599987 -2.6087101 -0.42912003
0.93599987 -2.5087101 -0.42912003
1.0359999 -2.65871 -0.42912003
1.0359999 -2.5087101 -0.42912003
1.1859999 -2.7587101 -0.47912005
1.2859999 -2.7587101 -0.47912005
1.1359999 -2.5087101 -0.42912003
0.93599987 -2.8087101 -0.079120032
0.93599987 -2.70871 -0.22912003
0.93599987 -2.7587101 -0.079120032
1.0359999 -2.8087101 -0.22912003
1.0359999 -2.8587101 -0.079120032
1.0359999 -2.8087101 -0.079120032
1.0359999 -2.7587101 -0.22912003
1.0359999 -2.70871 -0.12912004
0.93599987 -2.5587101 -0.12912004
1.0359999 -2.5587101 -0.12912004
1.0359999 -2.5087101 -0.12912004
1.1359999 -2.8087101 -0.22912003
1.1359999 -2.8087101 -0.12912004
1.1359999 -2.7587101 -0.12912004
1.2359999 -2.8587101 -0.22912003
1.2359999 -2.8087101 -0.12912004
1.1359999 -2.6087101 -0.12912004
1.1359999 -2.5087101 -0.12912004
1.2359999 -2.6087101 -0.12912004
1.2359999 -2.5087101 -0.12912004
0.93599987 -2.3587101 -0.42912003
1.0359999 -2.45871 -0.42912003
1.0359999 -2.3087101 -0.42912003
1.0359999 -2.1087101 -0.47912005
0.93599987 -2.2587101 -0.42912003
1.0359999 -2.2587101 -0.42912003
1.1359999 -2.40871 -0.42912003
1.1359999 -2.3587101 -0.42912003
1.2359999 -2.45871 -0.42912003
1.2359999 -2.3587101 -0.42912003
1.1859999 -2.20871 -0.47912005
1.1359999 -2.15871 -0.47912005
1.2859999 -2.2587101 -0.47912005
1.1859999 -2.2587101 -0.42912003
1.2859999 -2.20871 -0.42912003
0.93599987 -2.45871 -0.12912004
0.98599988 -2.3587101 -0.22912003
0.93599987 -2.3087101 -0.12912004
1.0359999 -2.40871 -0.12912004
1.0359999 -2.3087101 -0.12912004
0.98599988 -2.1087101 -0.17912003
0.93599987 -2.1087101 -0.12912004
1.0359999 -2.20871 -0.12912004
1.0859998 -2.15871 -0.17912003
1.0359999 -2.15871 -0.12912004
1.1359999 -2.40871 -0.22912003
1.1359999 -2.40871 -0.12912004
1.1359999 -2.3587101 -0.12912004
1.2359999 -2.45871 -0.17912003
1.2359999 -2.40871 -0.22912003
1.2359999 -2.40871 -0.12912004
1.1359999 -2.20871 -0.12912004
1.2359999 -2.20871 -0.17912003
1.2359999 -2.2587101 -0.12912004
1.3859999 -2.8587101 -0.47912005
1.3859999 -2.8587101 -0.32912004
1.6859999 -2.65871 -0.32912004
1.6359999 -2.5587101 -0.32912004
1.3359998 -2.8587101 -0.22912003
1.3359998 -2.8587101 -0.12912004
1.3359998 -2.7587101 -0.12912004
1.4359999 -2.8587101 -0.12912004
1.4359999 -2.7587101 -0.12912004
1.3859999 -2.8587101 0.020879971
1.4359999 -2.8087101 0.12087997
1.3359998 -2.6087101 -0.12912004
1.3359998 -2.5087101 -0.12912004
1.4359999 -2.5087101 -0.17912003
1.4859999 -2.5587101 -0.12912004
1.4859999 -2.65871 -0.02912003
1.4859999 -2.65871 0.070879973
1.4859999 -2.6087101 0.12087997
1.4859999 -2.5087101 -0.02912003
1.4859999 -2.5587101 0.070879973
1.4859999 -2.5587101 0.12087997
1.5359999 -2.7587101 -0.12912004
1.6359999 -2.7587101 -0.12912004
1.5359999 -2.5587101 -0.17912003
1.6359999 -2.5087101 -0.17912003
1.3359998 -2.3087101 -0.47912005
1.4859999 -2.40871 -0.47912005
1.3859999 -2.40871 -0.42912003
1.3859999 -2.15871 -0.47912005
1.4359999 -2.15871 -0.47912005
1.4859999 -2.1087101 -0.47912005
1.3359998 -2.20871 -0.42912003
1.4359999 -2.20871 -0.42912003
1.5359999 -2.3587101 -0.47912005
1.6359999 -2.3087101 -0.47912005
1.5859998 -2.15871 -0.47912005
1.6859999 -2.1087101 -0.47912005
1.5359999 -2.15871 -0.32912004
1.6859999 -2.20871 -0.42912003
1.3359998 -2.45871 -0.22912003
1.3359998 -2.40871 -0.17912003
1.3859999 -2.45871 -0.22912003
1.3359998 -2.40871 -0.12912004
1.3359998 -2.3087101 -0.17912003
1.4359999 -2.40871 -0.17912003
1.4859999 -2.45871 -0.22912003
1.4359999 -2.3087101 -0.17912003
1.4859999 -2.3087101 -0.079120032
1.4859999 -2.45871 0.020879971
1.4859999 -2.40871 0.070879973
1.4859999 -2.40871 0.12087997
1.3359998 -2.20871 -0.17912003
1.4359999 -2.2587101 -0.22912003
1.4359999 -2.20871 -0.17912003
1.4359999 -2.15871 -0.17912003
1.5359999 -2.45871 -0.17912003
1.5359999 -2.40871 -0.17912003
1.5359999 -2.3087101 -0.17912003
1.6359999 -2.40871 -0.17912003
1.6359999 -2.3087101 -0.17912003
1.6859999 -2.3087101 -0.17912003
1.5359999 -2.45871 -0.02912003
1.5359999 -2.45871 0.070879973
1.5359999 -2.45871 0.12087997
1.5359999 -2.40871 0.070879973
1.5359999 -2.3587101 -0.02912003
1.5359999 -2.3087101 -0.02912003
1.6859999 -2.40871 -0.02912003
1.6359999 -2.3587101 0.020879971
1.5359999 -2.20871 -0.17912003
1.5859998 -2.15871 -0.17912003
1.5859998 -2.15871 -0.079120032
1.6359999 -2.20871 -0.17912003
1.6359999 -2.15871 -0.17912003
1.6859999 -2.1087101 -0.17912003
1.4359999 -2.8087101 0.17087997
1.4859999 -2.6087101 0.27087998
1.4859999 -2.5587101 0.22087997
1.4859999 -2.5087101 0.32087997
1.4859999 -2.5587101 0.37087998
1.6859999 -2.5087101 0.27087998
1.4859999 -2.45871 0.22087997
1.4859999 -2.40871 0.17087997
1.4859999 -2.40871 0.27087998
1.5359999 -2.40871 0.22087997
1.5359999 -2.45871 0.27087998
1.5359999 -2.40871 0.27087998
1.5859998 -2.3587101 0.17087997
1.5859998 -2.3587101 0.22087997
1.5359999 -2.3587101 0.27087998
1.6359999 -2.40871 0.27087998
1.6859999 -2.40871 0.27087998
1.5359999 -2.40871 0.37087998
1.5859998 -2.3587101 0.37087998
1.6359999 -2.3087101 0.37087998
0.98599988 -2.0587101 -0.47912005
1.0359999 -1.75871 -0.47912005
0.93599987 -1.8087101 -0.42912003
1.1359999 -1.75871 -0.47912005
1.2359999 -1.7087101 -0.47912005
0.98599988 -2.0087101 -0.17912003
0.93599987 -1.9587101 -0.17912003
0.93599987 -1.90871 -0.17912003
1.0859998 -2.0087101 -0.17912003
1.0359999 -1.90871 -0.17912003
1.0859998 -1.90871 -0.17912003
0.93599987 -1.75871 -0.17912003
0.93599987 -1.7087101 -0.17912003
0.98599988 -1.75871 -0.17912003
1.0359999 -1.8587101 -0.17912003
1.0359999 -1.8087101 -0.17912003
1.0859998 -1.8087101 -0.22912003
1.0859998 -1.8087101 -0.17912003
1.0859998 -1.7087101 -0.17912003
1.1359999 -1.9587101 -0.17912003
1.1359999 -1.90871 -0.17912003
1.2359999 -1.9587101 -0.17912003
1.2359999 -1.90871 -0.17912003
1.2859999 -1.9587101 -0.17912003
1.1859999 -1.8587101 -0.17912003
1.1859999 -1.7087101 -0.17912003
1.2859999 -1.8587101 -0.17912003
1.2859999 -1.7087101 -0.17912003
0.93599987 -1.5587101 -0.47912005
1.0359999 -1.5587101 -0.47912005
0.93599987 -1.40871 -0.47912005
1.0359999 -1.3587101 -0.47912005
0.93599987 -1.3087101 -0.27912003
1.0359999 -1.3087101 -0.27912003
1.1359999 -1.50871 -0.47912005
1.2359999 -1.4587101 -0.47912005
0.93599987 -1.65871 -0.22912003
0.93599987 -1.65871 -0.17912003
0.93599987 -1.6087101 -0.22912003
0.93599987 -1.5587101 -0.17912003
0.93599987 -1.50871 -0.17912003
0.98599988 -1.50871 -0.17912003
0.93599987 -1.5587101 -0.079120032
1.0359999 -1.6087101 -0.22912003
1.0859998 -1.65871 -0.22912003
1.0359999 -1.5587101 -0.17912003
1.0359999 -1.50871 -0.22912003
1.0859998 -1.5587101 -0.17912003
1.0859998 -1.50871 -0.17912003
0.93599987 -1.40871 -0.17912003
0.98599988 -1.4587101 -0.22912003
0.98599988 -1.40871 -0.22912003
0.98599988 -1.40871 -0.17912003
0.93599987 -1.3087101 -0.17912003
0.98599988 -1.3587101 -0.17912003
0.98599988 -1.3087101 -0.22912003
1.0859998 -1.4587101 -0.17912003
1.0859998 -1.3087101 -0.22912003
1.1859999 -1.5587101 -0.17912003
1.1859999 -1.50871 -0.17912003
1.2359999 -1.50871 -0.22912003
1.2859999 -1.5587101 -0.17912003
1.2859999 -1.50871 -0.22912003
1.2859999 -1.50871 -0.12912004
1.1859999 -1.4587101 -0.22912003
1.1359999 -1.3587101 -0.22912003
1.3359998 -2.0087101 -0.32912004
1.4859999 -2.0587101 -0.32912004
1.4359999 -1.9587101 -0.32912004
1.3359998 -1.7087101 -0.47912005
1.3359998 -1.8087101 -0.32912004
1.3859999 -1.8087101 -0.32912004
1.4359999 -1.8587101 -0.32912004
1.5359999 -2.0587101 -0.47912005
1.6359999 -2.0087101 -0.47912005
1.6359999 -1.9587101 -0.47912005
1.5359999 -2.0587101 -0.32912004
1.5359999 -1.9587101 -0.32912004
1.6359999 -2.0587101 -0.32912004
1.6359999 -2.0087101 -0.27912003
1.3359998 -1.90871 -0.17912003
1.3859999 -1.90871 -0.17912003
1.3859999 -1.7087101 -0.17912003
1.4359999 -1.8587101 -0.17912003
1.4859999 -1.8587101 -0.17912003
1.4859999 -1.7087101 -0.22912003
1.5859998 -2.0087101 -0.12912004
1.5359999 -1.90871 -0.17912003
1.6359999 -2.0087101 -0.17912003
1.6359999 -2.0087101 -0.079120032
1.6359999 -1.9587101 0.070879973
1.5859998 -1.8587101 -0.22912003
1.5859998 -1.7087101 -0.22912003
1.6359999 -1.8087101 -0.22912003
1.6859999 -1.8587101 -0.22912003
1.6859999 -1.75871 -0.22912003
1.6859999 -1.7087101 -0.22912003
1.5859998 -1.8587101 -0.02912003
1.5859998 -1.8587101 0.070879973
1.5859998 -1.8587101 0.12087997
1.5859998 -1.75871 0.070879973
1.5859998 -1.75871 0.12087997
1.4359999 -1.65871 -0.47912005
1.4859999 -1.3087101 -0.27912003
1.3359998 -1.65871 -0.22912003
1.3359998 -1.5587101 -0.22912003
1.3859999 -1.5587101 -0.22912003
1.3859999 -1.50871 -0.22912003
1.3859999 -1.50871 -0.12912004
1.4859999 -1.5587101 -0.22912003
1.4859999 -1.50871 -0.22912003
1.3859999 -1.40871 -0.079120032
1.4859999 -1.3587101 -0.22912003
1.3359998 -1.40871 -0.02912003
1.5859998 -1.5587101 -0.22912003
1.5859998 -1.50871 -0.22912003
1.6859999 -1.5587101 -0.22912003
1.6859999 -1.50871 -0.22912003
1.5859998 -1.65871 0.12087997
1.5359999 -1.5587101 -0.02912003
1.5359999 -1.50871 0.020879971
1.5859998 -1.5587101 0.070879973
1.6359999 -1.50871 0.070879973
1.6859999 -1.5587101 0.070879973
1.5359999 -1.3587101 -0.22912003
1.6359999 -1.40871 -0.22912003
1.6859999 -1.40871 -0.22912003
1.6859999 -2.0587101 0.17087997
1.5359999 -1.8587101 0.22087997
1.5859998 -1.8587101 0.22087997
1.5359999 -1.75871 0.22087997
1.5359999 -1.7087101 0.22087997
1.6859999 -1.8087101 0.17087997
1.6859999 -1.7087101 0.32087997
1.5859998 -1.65871 0.22087997
1.5359999 -1.5587101 0.22087997
1.5359999 -1.50871 0.17087997
1.6359999 -1.65871 0.17087997
1.6359999 -1.6087101 0.27087998
1.6359999 -1.5587101 0.17087997
1.6359999 -1.5587101 0.22087997
1.6359999 -1.50871 0.17087997
1.6859999 -1.5587101 0.17087997
1.6859999 -1.5587101 0.22087997
1.6859999 -1.50871 0.22087997
1.6359999 -1.5587101 0.27087998
1.6359999 -1.40871 0.22087997
1.7859999 -2.8587101 -0.42912003
1.7859999 -2.7587101 -0.32912004
1.8859999 -2.8587101 -0.42912003
1.8359998 -2.5087101 -0.32912004
1.9859999 -2.8587101 -0.42912003
2.036 -2.8587101 -0.42912003
2.086 -2.7587101 -0.32912004
1.9359999 -2.6087101 -0.32912004
1.9859999 -2.65871 -0.32912004
2.086 -2.5087101 -0.42912003
1.7359999 -2.8587101 -0.12912004
1.7359999 -2.7587101 -0.17912003
1.7859999 -2.7587101 -0.17912003
1.7359999 -2.7587101 -0.12912004
1.8359998 -2.8087101 -0.17912003
1.8359998 -2.8587101 -0.12912004
1.8359998 -2.7587101 -0.17912003
1.9359999 -2.8587101 -0.17912003
1.9359999 -2.7587101 -0.17912003
2.036 -2.8587101 -0.17912003
2.036 -2.70871 -0.17912003
2.086 -2.5087101 -0.12912004
2.086 -2.5087101 -0.079120032
1.9359999 -2.5087101 0.070879973
1.7359999 -2.3087101 -0.32912004
1.7359999 -2.1087101 -0.47912005
1.8359998 -2.2587101 -0.47912005
1.7359999 -2.20871 -0.32912004
1.8359998 -2.2587101 -0.32912004
1.9359999 -2.3587101 -0.32912004
1.9859999 -2.3087101 -0.32912004
2.036 -2.45871 -0.32912004
2.036 -2.3587101 -0.32912004
1.9359999 -2.15871 -0.47912005
1.7359999 -2.45871 -0.17912003
1.7359999 -2.40871 -0.17912003
1.8359998 -2.45871 -0.17912003
1.8359998 -2.40871 -0.17912003
1.8359998 -2.3587101 -0.17912003
1.7859999 -2.40871 -0.02912003
1.7859999 -2.40871 0.020879971
1.8359998 -2.45871 -0.02912003
1.8859999 -2.40871 0.020879971
1.7359999 -2.2587101 -0.17912003
1.7359999 -2.20871 -0.17912003
1.7859999 -2.2587101 -0.17912003
1.7859999 -2.1087101 -0.17912003
1.8359998 -2.20871 -0.17912003
1.8859999 -2.20871 -0.17912003
1.8859999 -2.15871 -0.17912003
1.7859999 -2.20871 -0.02912003
1.9359999 -2.40871 -0.17912003
1.9359999 -2.3587101 -0.17912003
1.9359999 -2.3087101 -0.17912003
2.036 -2.45871 -0.17912003
1.9359999 -2.3587101 0.070879973
2.086 -2.45871 -0.02912003
2.086 -2.1087101 -0.22912003
2.1359999 -2.8087101 -0.47912005
2.2359998 -2.8087101 -0.47912005
2.286 -2.65871 -0.32912004
2.286 -2.6087101 -0.32912004
2.3859999 -2.70871 -0.47912005
2.3859999 -2.70871 -0.32912004
2.4359999 -2.7587101 -0.32912004
2.3859999 -2.5087101 -0.32912004
2.4359999 -2.65871 -0.32912004
2.4859998 -2.5587101 -0.32912004
2.1359999 -2.8587101 -0.17912003
2.1859999 -2.8087101 -0.17912003
2.1359999 -2.5587101 -0.17912003
2.1359999 -2.5587101 -0.12912004
2.1359999 -2.5587101 -0.079120032
2.2359998 -2.5087101 -0.17912003
2.336 -2.5087101 -0.17912003
2.4359999 -2.5587101 -0.17912003
2.1359999 -2.45871 -0.32912004
2.1359999 -2.45871 -0.27912003
2.1359999 -2.40871 -0.32912004
2.2359998 -2.45871 -0.32912004
2.336 -2.45871 -0.32912004
2.1359999 -2.45871 -0.17912003
2.1859999 -2.45871 -0.22912003
2.1359999 -2.45871 -0.02912003
2.2359998 -2.45871 0.020879971
2.286 -2.45871 0.020879971
2.286 -2.45871 0.12087997
2.1359999 -2.1087101 -0.22912003
2.1859999 -2.15871 -0.22912003
2.286 -2.20871 -0.22912003
2.336 -2.45871 0.12087997
2.4359999 -2.3587101 0.020879971
2.4359999 -2.3587101 0.12087997
2.4359999 -2.3087101 0.12087997
2.4359999 -2.2587101 -0.22912003
2.4859998 -2.2587101 0.070879973
1.7359999 -2.5087101 0.27087998
1.9359999 -2.8587101 0.27087998
2.2359998 -2.40871 0.22087997
2.3859999 -2.40871 0.17087997
2.3859999 -2.40871 0.22087997
2.336 -2.40871 0.42087999
2.4359999 -2.40871 0.42087999
2.4859998 -2.40871 0.37087998
2.4359999 -2.20871 0.17087997
1.7359999 -1.7087101 -0.27912003
1.7859999 -1.7087101 -0.27912003
1.8359998 -1.7087101 -0.27912003
1.9359999 -1.90871 -0.32912004
1.9859999 -1.9587101 -0.32912004
1.9859999 -1.8587101 -0.32912004
1.9859999 -1.7087101 -0.27912003
2.086 -1.8587101 -0.32912004
1.7359999 -2.0587101 -0.17912003
1.7859999 -1.90871 -0.12912004
1.8859999 -2.0087101 -0.22912003
1.7359999 -1.8087101 -0.22912003
1.7859999 -1.8087101 -0.22912003
1.7359999 -1.8587101 -0.079120032
1.7359999 -1.8087101 -0.079120032
1.7859999 -1.8087101 -0.079120032
1.7859999 -1.75871 -0.22912003
1.7859999 -1.7087101 -0.22912003
1.8359998 -1.8587101 -0.22912003
1.8859999 -1.75871 -0.22912003
1.8859999 -1.75871 -0.17912003
1.8859999 -1.7087101 -0.22912003
1.8859999 -1.7087101 -0.17912003
1.8359998 -1.75871 -0.12912004
1.8359998 -1.7087101 -0.079120032
1.8859999 -1.75871 -0.12912004
1.8859999 -1.7087101 -0.12912004
1.8859999 -1.7087101 -0.079120032
1.7359999 -1.8587101 -0.02912003
1.7859999 -1.8587101 -0.02912003
1.7859999 -1.8587101 0.020879971
1.7359999 -1.75871 0.020879971
1.7859999 -1.75871 -0.02912003
1.7359999 -1.75871 0.070879973
1.8859999 -1.8087101 0.020879971
1.8359998 -1.7087101 -0.02912003
1.8359998 -1.75871 0.070879973
1.8359998 -1.7087101 0.070879973
1.8859999 -1.75871 0.070879973
1.8859999 -1.7087101 0.070879973
1.9359999 -2.0587101 -0.22912003
1.9359999 -2.0087101 -0.22912003
1.9359999 -2.0087101 -0.17912003
1.9859999 -2.0587101 -0.22912003
1.9859999 -2.0587101 -0.17912003
1.9859999 -2.0087101 -0.17912003
1.9359999 -1.9587101 -0.17912003
1.9859999 -1.8587101 -0.12912004
1.9859999 -1.75871 -0.22912003
1.9859999 -1.7087101 -0.17912003
1.9359999 -1.7087101 -0.12912004
2.086 -1.8087101 -0.22912003
2.036 -1.8587101 -0.079120032
2.086 -1.8587101 -0.079120032
2.036 -1.75871 -0.079120032
2.036 -1.7087101 -0.079120032
1.9859999 -1.8087101 -0.02912003
1.9859999 -1.8087101 0.070879973
1.9859999 -1.8087101 0.12087997
1.9859999 -1.75871 0.020879971
2.086 -1.8587101 -0.02912003
2.086 -1.75871 0.020879971
2.036 -1.7087101 0.070879973
2.086 -1.7087101 0.12087997
1.8859999 -1.40871 -0.47912005
1.7859999 -1.3087101 -0.27912003
1.8859999 -1.3587101 -0.37912002
1.9859999 -1.50871 -0.47912005
2.036 -1.6087101 -0.47912005
2.036 -1.5587101 -0.47912005
2.086 -1.50871 -0.47912005
1.9359999 -1.6087101 -0.27912003
1.9859999 -1.5587101 -0.27912003
2.036 -1.65871 -0.27912003
2.036 -1.6087101 -0.32912004
2.036 -1.6087101 -0.27912003
2.086 -1.5587101 -0.27912003
1.9859999 -1.4587101 -0.47912005
1.9359999 -1.3587101 -0.47912005
2.036 -1.3587101 -0.47912005
1.9859999 -1.40871 -0.37912002
1.9359999 -1.4587101 -0.27912003
1.9359999 -1.3587101 -0.27912003
2.036 -1.40871 -0.42912003
2.036 -1.4587101 -0.27912003
2.086 -1.40871 -0.32912004
2.086 -1.3587101 -0.27912003
1.7859999 -1.65871 -0.079120032
1.7859999 -1.6087101 -0.079120032
1.8359998 -1.65871 -0.22912003
1.8859999 -1.6087101 -0.17912003
1.8859999 -1.50871 -0.079120032
1.7359999 -1.65871 0.020879971
1.7359999 -1.50871 -0.02912003
1.7359999 -1.5587101 0.070879973
1.7859999 -1.5587101 0.070879973
1.7859999 -1.5587101 0.12087997
1.7859999 -1.50871 0.070879973
1.8359998 -1.65871 0.12087997
1.8859999 -1.65871 0.12087997
1.8859999 -1.6087101 0.12087997
1.8359998 -1.5587101 -0.02912003
1.8359998 -1.50871 0.020879971
1.8859999 -1.5587101 -0.02912003
1.8859999 -1.50871 -0.02912003
1.8359998 -1.5587101 0.070879973
1.8359998 -1.5587101 0.12087997
1.8859999 -1.5587101 0.070879973
1.8859999 -1.5587101 0.12087997
1.7859999 -1.4587101 -0.22912003
1.7859999 -1.40871 -0.22912003
1.7359999 -1.3087101 -0.22912003
1.9359999 -1.65871 -0.17912003
1.9359999 -1.6087101 -0.22912003
1.9859999 -1.65871 -0.22912003
1.9859999 -1.65871 -0.12912004
1.9859999 -1.65871 -0.079120032
1.9859999 -1.6087101 -0.079120032
1.9859999 -1.5587101 -0.22912003
1.9859999 -1.5587101 -0.17912003
1.9359999 -1.5587101 -0.079120032
1.9859999 -1.5587101 -0.12912004
2.036 -1.6087101 -0.17912003
2.086 -1.65871 -0.22912003
2.036 -1.65871 -0.12912004
2.036 -1.6087101 -0.079120032
2.036 -1.50871 -0.22912003
2.086 -1.50871 -0.22912003
2.036 -1.50871 -0.079120032
2.086 -1.5587101 -0.079120032
1.9359999 -1.65871 0.020879971
1.9859999 -1.65871 -0.02912003
1.9359999 -1.6087101 0.070879973
1.9359999 -1.6087101 0.12087997
1.9859999 -1.6087101 0.070879973
1.9859999 -1.6087101 0.12087997
1.9359999 -1.5587101 -0.02912003
1.9859999 -1.50871 -0.02912003
1.9359999 -1.5587101 0.070879973
1.9359999 -1.50871 0.12087997
1.9859999 -1.50871 0.070879973
2.036 -1.65871 0.020879971
2.036 -1.6087101 -0.02912003
2.086 -1.65871 0.020879971
2.086 -1.6087101 -0.02912003
2.036 -1.6087101 0.12087997
2.086 -1.65871 0.12087997
2.036 -1.5587101 -0.02912003
2.036 -1.5587101 0.020879971
2.036 -1.5587101 0.070879973
2.036 -1.5587101 0.12087997
2.086 -1.5587101 0.12087997
2.086 -1.50871 0.12087997
1.9859999 -1.4587101 -0.22912003
1.9859999 -1.40871 -0.22912003
1.9359999 -1.4587101 -0.079120032
2.086 -1.40871 -0.22912003
2.036 -1.4587101 -0.12912004
2.036 -1.40871 -0.12912004
2.086 -1.40871 -0.12912004
2.086 -1.40871 -0.02912003
2.2359998 -2.0087101 -0.32912004
2.2359998 -1.9587101 -0.32912004
2.286 -1.90871 -0.32912004
2.1359999 -1.75871 -0.47912005
2.2359998 -1.8587101 -0.47912005
2.286 -1.8087101 -0.47912005
2.2359998 -1.7087101 -0.37912002
2.286 -1.75871 -0.27912003
2.4359999 -1.90871 -0.47912005
2.336 -1.75871 -0.47912005
2.4859998 -1.8087101 -0.47912005
2.4359999 -1.7087101 -0.47912005
2.336 -1.8587101 -0.27912003
2.3859999 -1.8587101 -0.27912003
2.336 -1.75871 -0.37912002
2.336 -1.7087101 -0.27912003
2.3859999 -1.75871 -0.27912003
2.4859998 -1.8087101 -0.27912003
2.4859998 -1.75871 -0.27912003
2.4859998 -1.7087101 -0.27912003
2.2359998 -1.90871 -0.22912003
2.286 -1.9587101 -0.22912003
2.1359999 -1.90871 0.020879971
2.1859999 -1.90871 0.020879971
2.2359998 -1.90871 0.12087997
2.1859999 -1.8587101 -0.22912003
2.1359999 -1.7087101 -0.22912003
2.1859999 -1.75871 -0.079120032
2.1859999 -1.7087101 -0.12912004
2.2359998 -1.75871 -0.22912003
2.286 -1.7087101 -0.22912003
2.1859999 -1.7087101 0.12087997
2.2359998 -1.8587101 0.12087997
2.2359998 -1.75871 0.020879971
2.2359998 -1.75871 0.12087997
2.286 -1.75871 0.070879973
2.3859999 -2.0087101 -0.22912003
2.3859999 -1.9587101 -0.22912003
2.4859998 -2.0587101 -0.22912003
2.4359999 -1.90871 0.070879973
2.4859998 -1.90871 0.070879973
2.4859998 -1.90871 0.12087997
2.3859999 -1.75871 -0.22912003
2.4359999 -1.8087101 -0.22912003
2.4859998 -1.8087101 -0.22912003
2.4859998 -1.8587101 0.020879971
2.4359999 -1.8087101 0.070879973
2.4859998 -1.8587101 0.12087997
2.4859998 -1.8087101 0.070879973
2.4859998 -1.75871 0.020879971
2.4359999 -1.75871 0.070879973
2.4859998 -1.75871 0.070879973
2.1859999 -1.65871 -0.47912005
2.2359998 -1.6087101 -0.47912005
2.1859999 -1.65871 -0.27912003
2.1359999 -1.5587101 -0.27912003
2.1359999 -1.40871 -0.47912005
2.1859999 -1.3587101 -0.47912005
2.2359998 -1.40871 -0.47912005
2.1359999 -1.40871 -0.27912003
2.1859999 -1.40871 -0.27912003
2.1359999 -1.3587101 -0.37912002
2.1859999 -1.3587101 -0.27912003
2.286 -1.4587101 -0.27912003
2.286 -1.3587101 -0.27912003
2.4859998 -1.65871 -0.47912005
2.4359999 -1.5587101 -0.47912005
2.336 -1.6087101 -0.42912003
2.3859999 -1.65871 -0.27912003
2.3859999 -1.6087101 -0.27912003
2.336 -1.50871 -0.27912003
2.3859999 -1.5587101 -0.27912003
2.4859998 -1.65871 -0.27912003
2.4859998 -1.6087101 -0.27912003
2.4859998 -1.5587101 -0.27912003
2.4859998 -1.50871 -0.27912003
2.3859999 -1.40871 -0.47912005
2.4359999 -1.3587101 -0.47912005
2.3859999 -1.4587101 -0.27912003
2.3859999 -1.3587101 -0.27912003
2.3859999 -1.3087101 -0.27912003
2.4859998 -1.4587101 -0.27912003
2.4359999 -1.3587101 -0.27912003
2.4859998 -1.3587101 -0.27912003
2.1359999 -1.65871 -0.17912003
2.1359999 -1.6087101 -0.12912004
2.2359998 -1.65871 -0.22912003
2.1359999 -1.65871 0.12087997
2.1359999 -1.6087101 0.12087997
2.1359999 -1.5587101 -0.02912003
2.1359999 -1.50871 0.020879971
2.1859999 -1.5587101 -0.02912003
2.1859999 -1.5587101 0.020879971
2.1359999 -1.5587101 0.070879973
2.1359999 -1.5587101 0.12087997
2.286 -1.6087101 0.070879973
2.286 -1.50871 0.020879971
2.1359999 -1.40871 -0.22912003
2.1859999 -1.4587101 -0.22912003
2.1859999 -1.40871 -0.22912003
2.1359999 -1.40871 -0.12912004
2.1859999 -1.4587101 -0.12912004
2.1359999 -1.3587101 -0.22912003
2.2359998 -1.40871 -0.17912003
2.286 -1.4587101 -0.22912003
2.286 -1.40871 -0.17912003
2.286 -1.3587101 -0.12912004
2.1359999 -1.40871 -0.02912003
2.1859999 -1.40871 0.020879971
2.286 -1.40871 0.070879973
2.286 -1.40871 0.12087997
2.286 -1.3587101 -0.02912003
2.3859999 -1.50871 -0.17912003
2.4359999 -1.50871 -0.17912003
2.3859999 -1.6087101 0.070879973
2.336 -1.50871 0.070879973
2.3859999 -1.50871 0.12087997
2.4859998 -1.65871 0.020879971
2.4859998 -1.6087101 -0.02912003
2.4859998 -1.65871 0.070879973
2.4359999 -1.50871 0.020879971
2.4859998 -1.50871 -0.02912003
2.4859998 -1.5587101 0.070879973
2.336 -1.40871 -0.079120032
2.4359999 -1.3587101 -0.079120032
2.336 -1.40871 -0.02912003
2.336 -1.4587101 0.070879973
2.336 -1.40871 0.12087997
2.3859999 -1.4587101 0.070879973
2.3859999 -1.40871 0.070879973
2.336 -1.3587101 0.020879971
2.3859999 -1.3087101 0.12087997
2.4359999 -1.40871 -0.02912003
2.4359999 -1.4587101 0.070879973
2.4359999 -1.40871 0.070879973
2.4859998 -1.4587101 0.12087997
2.4359999 -1.3587101 0.070879973
2.4859998 -1.3587101 0.12087997
1.7359999 -1.75871 0.17087997
1.7859999 -1.75871 0.17087997
1.8859999 -1.8587101 0.17087997
1.8859999 -1.75871 0.17087997
2.036 -1.90871 0.32087997
1.9859999 -1.7087101 0.17087997
2.036 -1.8587101 0.17087997
2.036 -1.8587101 0.27087998
2.036 -1.8587101 0.32087997
2.086 -1.8587101 0.27087998
2.036 -1.75871 0.22087997
2.086 -1.75871 0.17087997
2.036 -1.7087101 0.32087997
1.7359999 -1.65871 0.17087997
1.7359999 -1.6087101 0.17087997
1.7359999 -1.6087101 0.22087997
1.7859999 -1.65871 0.17087997
1.7859999 -1.65871 0.27087998
1.7359999 -1.5587101 0.17087997
1.7359999 -1.5587101 0.27087998
1.7859999 -1.5587101 0.27087998
1.8359998 -1.6087101 0.22087997
1.8859999 -1.6087101 0.22087997
1.8859999 -1.65871 0.27087998
1.8859999 -1.6087101 0.32087997
1.8359998 -1.5587101 0.22087997
1.8359998 -1.50871 0.17087997
1.8359998 -1.50871 0.22087997
1.8859999 -1.50871 0.22087997
1.8359998 -1.50871 0.27087998
1.9359999 -1.65871 0.17087997
1.9859999 -1.65871 0.22087997
1.9859999 -1.6087101 0.17087997
1.9859999 -1.65871 0.27087998
1.9859999 -1.6087101 0.27087998
1.9359999 -1.5587101 0.22087997
1.9359999 -1.50871 0.17087997
1.9859999 -1.5587101 0.22087997
1.9859999 -1.50871 0.22087997
1.9359999 -1.5587101 0.27087998
2.036 -1.65871 0.17087997
2.036 -1.65871 0.22087997
2.086 -1.65871 0.22087997
2.036 -1.6087101 0.27087998
2.036 -1.6087101 0.32087997
2.086 -1.65871 0.27087998
2.036 -1.5587101 0.17087997
2.036 -1.5587101 0.22087997
2.036 -1.50871 0.17087997
2.086 -1.5587101 0.17087997
2.086 -1.5587101 0.22087997
2.086 -1.5587101 0.27087998
2.086 -1.4587101 0.27087998
2.086 -1.3587101 0.27087998
2.1359999 -1.90871 0.27087998
2.1859999 -1.90871 0.27087998
2.2359998 -1.90871 0.22087997
2.286 -1.90871 0.17087997
2.1359999 -1.8087101 0.17087997
2.1859999 -1.8587101 0.22087997
2.1359999 -1.8587101 0.27087998
2.1359999 -1.75871 0.17087997
2.1859999 -1.7087101 0.22087997
2.1359999 -1.75871 0.27087998
2.1359999 -1.7087101 0.27087998
2.3859999 -1.90871 0.17087997
2.3859999 -1.90871 0.22087997
2.4859998 -2.0087101 0.32087997
2.4359999 -1.9587101 0.22087997
2.4859998 -1.9587101 0.37087998
2.4859998 -1.90871 0.37087998
2.336 -1.75871 0.22087997
2.3859999 -1.7087101 0.17087997
2.4359999 -1.8587101 0.22087997
2.4359999 -1.75871 0.17087997
2.4359999 -1.75871 0.22087997
2.4859998 -1.7087101 0.22087997
2.4359999 -1.75871 0.27087998
2.4859998 -1.75871 0.27087998
2.4859998 -1.7087101 0.32087997
2.1859999 -1.65871 0.17087997
2.1859999 -1.6087101 0.17087997
