# .PCD v0.7 - Point Cloud Data file format
VERSION 0.7
FIELDS x y z
SIZE 4 4 4
TYPE F F F
COUNT 1 1 1
WIDTH 1482
HEIGHT 1
VIEWPOINT 0 0 0 1 0 0 0
POINTS 1482
DATA ascii
-5.0929999 -9.29321 0.12488002
-5.0430002 -9.4432106 0.024880024
-4.993 -9.4432106 0.024880024
-5.0430002 -9.3932104 0.12488002
-4.993 -9.4432106 0.074880026
-4.993 -9.3932104 0.074880026
-4.993 -9.29321 0.12488002
-5.0929999 -9.3932104 0.17488003
-5.0929999 -9.4432106 0.27488002
-5.0929999 -9.3932104 0.27488002
-5.0929999 -9.3432102 0.17488003
-5.0929999 -9.3432102 0.22488002
-5.0929999 -9.29321 0.22488002
-5.1430001 -9.3432102 0.32488003
-5.0929999 -9.29321 0.27488002
-4.993 -9.4432106 0.17488003
-4.993 -9.4432106 0.22488002
-5.0430002 -9.4432106 0.32488003
-4.993 -9.4432106 0.32488003
-4.993 -9.3932104 0.27488002
-4.993 -9.3432102 0.22488002
-5.0430002 -9.29321 0.27488002
-5.0929999 -9.2432098 -0.32511997
-5.0929999 -9.1932106 -0.07511998
-5.0929999 -9.1432104 -0.22511998
-5.0929999 -9.0932102 -0.07511998
-4.993 -9.1932106 -0.22511998
-5.0430002 -9.1932106 -0.12511998
-5.0430002 -9.1432104 -0.17511998
-4.993 -9.1432104 -0.12511998
-4.993 -9.04321 -0.07511998
-5.0929999 -9.2432098 0.024880024
-5.0929999 -9.1932106 0.12488002
-5.0929999 -9.1432104 -0.025119977
-5.0929999 -9.0932102 0.074880026
-5.0430002 -9.2432098 0.024880024
-5.0430002 -9.1932106 -0.025119977
-5.0430002 -9.2432098 0.074880026
-5.0430002 -9.2432098 0.12488002
-5.0430002 -9.1932106 0.074880026
-4.993 -9.1432104 0.024880024
-5.0430002 -9.1432104 0.074880026
-5.0430002 -9.1432104 0.12488002
-5.0929999 -9.2432098 0.17488003
-5.0929999 -9.1932106 0.17488003
-5.0929999 -9.2432098 0.32488003
-5.0929999 -9.1932106 0.27488002
-5.0929999 -9.0932102 0.17488003
-5.0929999 -9.0932102 0.22488002
-5.0929999 -9.0932102 0.32488003
-5.0430002 -9.2432098 0.22488002
-4.993 -9.2432098 0.17488003
-4.993 -9.2432098 0.22488002
-4.993 -9.1932106 0.22488002
-5.0430002 -9.1932106 0.27488002
-4.993 -9.1432104 0.17488003
-5.0430002 -9.0932102 0.32488003
-4.993 -9.1432104 0.27488002
-5.0929999 -8.9932098 -0.025119977
-5.0430002 -8.9932098 0.024880024
-4.993 -9.04321 0.12488002
-5.0929999 -8.9932098 0.22488002
-5.0929999 -9.04321 0.27488002
-5.0430002 -8.9932098 0.27488002
-5.0430002 -8.9432106 0.17488003
-4.993 -8.8932104 0.32488003
-4.9430003 -9.4932098 -0.07511998
-4.7930002 -9.3932104 -0.17511998
-4.7930002 -9.4432106 -0.12511998
-4.7930002 -9.29321 -0.12511998
-4.6930003 -9.5932102 -0.27511999
-4.743 -9.4432106 -0.12511998
-4.6930003 -9.3932104 -0.12511998
-4.743 -9.3432102 -0.17511998
-4.6930003 -9.29321 -0.12511998
-4.6430001 -9.4432106 -0.07511998
-4.9430003 -9.5932102 0.024880024
-4.9430003 -9.6432104 0.12488002
-4.9430003 -9.4932098 -0.025119977
-4.9430003 -9.4932098 0.12488002
-4.8429999 -9.5932102 0.074880026
-4.8429999 -9.54321 0.074880026
-4.9430003 -9.5932102 0.32488003
-4.8930001 -9.6432104 0.27488002
-4.8930001 -9.5932102 0.27488002
-4.8930001 -9.54321 0.22488002
-4.8429999 -9.5932102 0.22488002
-4.8429999 -9.4932098 0.17488003
-4.7930002 -9.54321 0.17488003
-4.9430003 -9.4432106 0.12488002
-4.7930002 -9.4432106 0.024880024
-4.7930002 -9.3432102 -0.025119977
-4.7930002 -9.3432102 0.024880024
-4.9430003 -9.4432106 0.17488003
-4.9430003 -9.3932104 0.17488003
-4.8930001 -9.4432106 0.27488002
-4.6930003 -9.29321 -0.025119977
-4.5929999 -9.4432106 -0.025119977
-4.6430001 -9.3432102 -0.025119977
-4.8429999 -9.1432104 -0.32511997
-4.9430003 -9.1932106 -0.17511998
-4.9430003 -9.1932106 -0.07511998
-4.8930001 -9.0932102 -0.17511998
-4.9430003 -9.1432104 -0.12511998
-4.9430003 -9.1432104 -0.07511998
-4.8930001 -9.1432104 -0.12511998
-4.7930002 -9.1932106 -0.17511998
-4.8429999 -9.1932106 -0.07511998
-4.8429999 -9.1432104 -0.22511998
-4.7930002 -9.1432104 -0.17511998
-4.8930001 -9.04321 -0.27511999
-4.7930002 -8.8932104 -0.37511998
-4.9430003 -8.8932104 -0.12511998
-4.743 -9.1932106 -0.27511999
-4.5929999 -9.2432098 -0.27511999
-4.6930003 -9.1932106 -0.17511998
-4.743 -9.1932106 -0.12511998
-4.6930003 -9.1932106 -0.07511998
-4.6430001 -9.1932106 -0.07511998
-4.5929999 -8.9932098 -0.27511999
-4.9430003 -9.1932106 0.074880026
-4.9430003 -9.0932102 0.024880024
-4.8930001 -9.1432104 0.12488002
-4.9430003 -9.1932106 0.22488002
-4.9430003 -9.0932102 0.22488002
-4.9430003 -8.9932098 0.12488002
-4.8930001 -8.8932104 0.024880024
-4.7930002 -8.8932104 0.074880026
-4.9430003 -8.9932098 0.32488003
-4.9430003 -8.8932104 0.22488002
-4.8930001 -8.9432106 0.17488003
-4.7930002 -8.8932104 0.22488002
-4.8429999 -8.8932104 0.27488002
-4.8429999 -8.8932104 0.32488003
-4.993 -9.4932098 0.42488003
-4.993 -9.4932098 0.52488005
-5.0929999 -9.54321 0.62488002
-4.993 -9.54321 0.62488002
-5.0929999 -9.3932104 0.37488002
-5.1430001 -9.3932104 0.52488005
-5.1430001 -9.3432102 0.42488003
-5.0929999 -9.29321 0.42488003
-5.1430001 -9.29321 0.47488004
-5.0430002 -9.3932104 0.37488002
-4.993 -9.4432106 0.37488002
-5.0430002 -9.4432106 0.47488004
-5.0430002 -9.4432106 0.52488005
-4.993 -9.4432106 0.47488004
-4.993 -9.3932104 0.52488005
-5.0430002 -9.3432102 0.37488002
-5.0430002 -9.3432102 0.47488004
-5.0430002 -9.3432102 0.52488005
-5.0929999 -9.29321 0.67488003
-5.0430002 -9.3932104 0.62488002
-4.993 -9.4432106 0.62488002
-5.0430002 -9.3932104 0.72488004
-5.0430002 -9.3432102 0.62488002
-5.0430002 -9.29321 0.62488002
-5.0929999 -9.4932098 0.77488005
-5.0929999 -9.4932098 0.87488002
-4.993 -9.54321 0.77488005
-5.0929999 -9.3932104 0.77488005
-5.1430001 -9.4432106 0.92488003
-5.1430001 -9.3432102 0.92488003
-4.993 -9.4432106 0.77488005
-5.0430002 -9.4432106 0.87488002
-5.0430002 -9.3432102 0.82488006
-5.0430002 -9.29321 0.92488003
-5.0430002 -9.29321 1.1248801
-5.1430001 -9.2432098 0.52488005
-5.0929999 -9.1932106 0.47488004
-5.1430001 -9.0932102 0.42488003
-5.0929999 -9.0932102 0.42488003
-5.0929999 -9.0932102 0.47488004
-5.0430002 -9.2432098 0.37488002
-4.993 -9.2432098 0.47488004
-4.993 -9.1932106 0.47488004
-4.993 -9.1432104 0.42488003
-5.0430002 -9.1432104 0.52488005
-4.993 -9.1432104 0.47488004
-5.0929999 -9.2432098 0.67488003
-5.0929999 -9.0932102 0.62488002
-5.0430002 -9.0932102 0.72488004
-4.993 -9.1432104 0.72488004
-5.0430002 -9.04321 0.47488004
-5.0430002 -9.04321 0.52488005
-4.993 -8.9432106 0.52488005
-4.993 -8.8932104 0.47488004
-4.993 -9.04321 0.57488
-4.993 -8.9432106 0.62488002
-5.0929999 -9.0932102 0.77488005
-5.1430001 -9.0932102 0.87488002
-5.0430002 -9.1432104 0.82488006
-5.0929999 -9.04321 0.87488002
-5.0430002 -9.04321 0.82488006
-4.993 -9.04321 0.82488006
-4.993 -8.9932098 0.87488002
-4.8930001 -9.6432104 0.37488002
-4.8930001 -9.5932102 0.37488002
-4.8930001 -9.54321 0.62488002
-4.9430003 -9.1432104 0.37488002
-4.9430003 -9.1432104 0.52488005
-4.9430003 -9.1432104 0.72488004
-4.9430003 -9.0932102 0.72488004
-4.9430003 -8.8932104 0.37488002
-4.8429999 -8.9432106 0.42488003
-4.8429999 -8.8932104 0.42488003
-4.9430003 -9.04321 0.57488
-4.9430003 -8.9932098 0.67488003
-4.8930001 -8.8932104 0.57488
-4.9430003 -8.8932104 0.72488004
-4.8429999 -8.8932104 0.62488002
-4.8429999 -8.8932104 0.82488006
-6.1430001 -8.5932102 -0.22511998
-6.1430001 -8.54321 -0.22511998
-5.8429999 -8.6932106 -0.32511997
-5.8930001 -8.6932106 -0.22511998
-5.7930002 -8.6932106 -0.07511998
-5.8930001 -8.6432104 -0.17511998
-5.9430003 -8.5932102 -0.12511998
-5.7930002 -8.6432104 -0.12511998
-5.7930002 -8.6432104 -0.07511998
-6.0929999 -8.6932106 0.12488002
-6.1430001 -8.5932102 0.024880024
-6.0430002 -8.6432104 -0.025119977
-6.0430002 -8.5932102 0.024880024
-5.993 -8.6432104 0.12488002
-6.0929999 -8.6432104 0.17488003
-6.1430001 -8.5932102 0.27488002
-6.0430002 -8.5932102 0.17488003
-5.993 -8.6432104 0.17488003
-5.9430003 -8.6932106 -0.025119977
-5.7930002 -8.6932106 0.074880026
-5.9430003 -8.6932106 0.17488003
-5.8930001 -8.6432104 0.024880024
-5.8930001 -8.54321 0.12488002
-5.7930002 -8.6432104 0.024880024
-5.7930002 -8.6432104 0.12488002
-5.9430003 -8.5932102 0.22488002
-5.8930001 -8.6432104 0.17488003
-5.8930001 -8.54321 0.22488002
-5.9430003 -8.54321 0.27488002
-5.8429999 -8.6432104 0.22488002
-5.7930002 -8.5932102 0.22488002
-5.743 -8.6932106 -0.12511998
-5.5929999 -8.5932102 -0.12511998
-5.6930003 -8.5932102 0.22488002
-5.5430002 -8.6932106 0.024880024
-5.4430003 -8.7432098 0.22488002
-5.4430003 -8.6932106 0.17488003
-6.0929999 -8.6432104 0.42488003
-6.0929999 -8.5932102 0.37488002
-6.0929999 -8.5932102 0.52488005
-6.1430001 -8.6432104 0.67488003
-6.0929999 -8.6432104 0.72488004
-6.0430002 -8.54321 0.67488003
-5.9430003 -8.6932106 0.37488002
-5.9430003 -8.5932102 0.47488004
-5.8429999 -8.54321 0.47488004
-5.9430003 -8.6432104 0.57488
-5.8930001 -8.6432104 0.72488004
-5.8930001 -8.54321 0.57488
-5.8930001 -8.54321 0.62488002
-5.8930001 -8.6432104 0.77488005
-5.8429999 -8.6432104 0.82488006
-5.8429999 -8.6432104 0.87488002
-5.9430003 -8.6432104 1.1248801
-5.7930002 -8.6432104 1.07488
-5.743 -8.6432104 0.42488003
-5.5929999 -8.6432104 0.42488003
-5.5430002 -8.6432104 0.67488003
-5.5430002 -8.6432104 0.72488004
-4.7930002 -8.7432098 -0.27511999
-4.9430003 -8.79321 -0.22511998
-4.8930001 -8.79321 -0.07511998
-4.8930001 -8.7432098 -0.17511998
-4.8930001 -8.7432098 -0.07511998
-4.7930002 -8.79321 -0.22511998
-4.8429999 -8.8432102 -0.07511998
-4.7930002 -8.7432098 -0.17511998
-4.8429999 -8.7432098 -0.12511998
-4.8429999 -8.6932106 -0.12511998
-4.7930002 -8.7432098 -0.12511998
-4.8429999 -8.6432104 -0.17511998
-4.8429999 -8.54321 -0.17511998
-4.8429999 -8.54321 -0.07511998
-4.743 -8.6432104 -0.07511998
-4.743 -8.54321 -0.22511998
-4.743 -8.4932098 -0.17511998
-4.743 -8.54321 -0.12511998
-4.743 -8.54321 -0.07511998
-4.743 -8.4932098 -0.12511998
-4.8930001 -8.8432102 0.074880026
-4.8930001 -8.6932106 -0.025119977
-4.8930001 -8.7432098 0.12488002
-4.8930001 -8.6932106 0.12488002
-4.8429999 -8.8432102 0.12488002
-4.8429999 -8.79321 0.074880026
-4.7930002 -8.7432098 0.024880024
-4.8429999 -8.7432098 0.12488002
-4.8429999 -8.6932106 0.074880026
-4.8429999 -8.6932106 0.12488002
-4.7930002 -8.7432098 0.12488002
-4.7930002 -8.6932106 0.12488002
-4.8930001 -8.8432102 0.22488002
-4.8930001 -8.6932106 0.22488002
-4.8930001 -8.6932106 0.27488002
-4.8429999 -8.8432102 0.22488002
-4.8429999 -8.79321 0.22488002
-4.7930002 -8.8432102 0.22488002
-4.7930002 -8.79321 0.17488003
-4.8429999 -8.8432102 0.32488003
-4.8429999 -8.79321 0.27488002
-4.7930002 -8.8432102 0.32488003
-4.7930002 -8.6932106 0.17488003
-4.8429999 -8.7432098 0.27488002
-4.7930002 -8.7432098 0.32488003
-4.8429999 -8.5932102 0.074880026
-4.8429999 -8.54321 0.074880026
-4.7930002 -8.54321 0.074880026
-4.7930002 -8.54321 0.12488002
-4.7930002 -8.4932098 0.12488002
-4.8930001 -8.6432104 0.22488002
-4.8930001 -8.4932098 0.17488003
-4.7930002 -8.6432104 0.22488002
-4.8429999 -8.6432104 0.27488002
-4.7930002 -8.5932102 0.32488003
-4.8429999 -8.4932098 0.17488003
-4.7930002 -8.54321 0.22488002
-4.8429999 -8.54321 0.32488003
-4.7930002 -8.54321 0.32488003
-4.7930002 -8.4932098 0.27488002
-4.7930002 -8.4932098 0.32488003
-4.743 -8.54321 0.024880024
-4.743 -8.54321 0.22488002
-4.8429999 -8.4432106 -0.07511998
-4.8429999 -8.3932104 -0.07511998
-4.7930002 -8.4432106 -0.12511998
-4.7930002 -8.4432106 -0.07511998
-4.7930002 -8.3432102 -0.12511998
-4.7930002 -8.2432098 -0.12511998
-4.6930003 -8.3432102 -0.17511998
-4.6930003 -8.3432102 -0.07511998
-4.743 -8.1932106 -0.27511999
-4.743 -8.2432098 -0.17511998
-4.6930003 -8.2432098 -0.22511998
-4.6930003 -8.2432098 -0.17511998
-4.6930003 -8.1932106 -0.17511998
-4.743 -8.1932106 -0.07511998
-4.6930003 -8.2432098 -0.12511998
-4.6930003 -8.1932106 -0.12511998
-4.743 -8.1432104 -0.12511998
-4.7930002 -8.4432106 0.024880024
-4.7930002 -8.3932104 -0.025119977
-4.7930002 -8.3932104 0.024880024
-4.7930002 -8.3932104 0.074880026
-4.8429999 -8.3432102 0.024880024
-4.7930002 -8.29321 -0.025119977
-4.7930002 -8.3432102 0.074880026
-4.7930002 -8.3432102 0.12488002
-4.8429999 -8.3932104 0.17488003
-4.8429999 -8.3932104 0.22488002
-4.7930002 -8.4432106 0.22488002
-4.8429999 -8.3932104 0.32488003
-4.7930002 -8.4432106 0.27488002
-4.7930002 -8.3432102 0.22488002
-4.7930002 -8.29321 0.27488002
-4.7930002 -8.2432098 0.074880026
-4.7930002 -8.2432098 0.27488002
-4.7930002 -8.0932102 0.17488003
-4.743 -8.4432106 -0.025119977
-4.743 -8.4432106 0.12488002
-4.6930003 -8.3432102 0.12488002
-4.743 -8.3932104 0.17488003
-4.743 -8.29321 0.22488002
-4.6930003 -8.29321 0.17488003
-4.6930003 -8.29321 0.22488002
-4.743 -8.2432098 -0.025119977
-4.743 -8.1932106 0.024880024
-4.6930003 -8.1932106 -0.025119977
-4.743 -8.2432098 0.074880026
-4.743 -8.1932106 0.12488002
-4.6930003 -8.2432098 0.074880026
-4.6930003 -8.1932106 0.12488002
-4.743 -8.1432104 -0.025119977
-4.743 -8.0932102 -0.025119977
-4.6930003 -8.0932102 -0.025119977
-4.6930003 -8.0932102 0.024880024
-4.743 -8.1432104 0.074880026
-4.743 -8.1432104 0.12488002
-4.743 -8.0932102 0.074880026
-4.6930003 -8.0932102 0.074880026
-4.6930003 -8.0932102 0.12488002
-4.6430001 -8.1432104 0.024880024
-4.743 -8.2432098 0.17488003
-4.743 -8.1932106 0.22488002
-4.743 -8.2432098 0.32488003
-4.743 -8.1932106 0.27488002
-4.743 -8.1932106 0.32488003
-4.6930003 -8.1932106 0.27488002
-4.743 -8.0932102 0.22488002
-4.6930003 -8.0932102 0.17488003
-4.6430001 -8.0932102 0.27488002
-4.8930001 -8.8432102 0.47488004
-4.8930001 -8.6932106 0.42488003
-4.8930001 -8.6932106 0.47488004
-4.8429999 -8.8432102 0.37488002
-4.8429999 -8.79321 0.37488002
-4.8429999 -8.8432102 0.47488004
-4.8429999 -8.79321 0.47488004
-4.8429999 -8.6932106 0.42488003
-4.8429999 -8.7432098 0.47488004
-4.8930001 -8.7432098 0.72488004
-4.8930001 -8.6932106 0.67488003
-4.8429999 -8.79321 0.67488003
-4.8429999 -8.7432098 0.72488004
-4.7930002 -8.6932106 0.67488003
-4.7930002 -8.54321 0.37488002
-4.7930002 -8.4932098 0.47488004
-4.8930001 -8.5932102 0.57488
-4.8429999 -8.5932102 0.62488002
-4.7930002 -8.54321 0.57488
-4.7930002 -8.4932098 0.67488003
-4.8930001 -8.8432102 0.92488003
-4.8930001 -8.8432102 0.97488004
-4.8429999 -8.5932102 0.82488006
-4.8429999 -8.4932098 0.77488005
-4.8429999 -8.3932104 0.37488002
-4.7930002 -8.3432102 0.37488002
-4.7930002 -8.3432102 0.47488004
-4.7930002 -8.4432106 0.62488002
-4.7930002 -8.3932104 0.57488
-4.8429999 -8.4432106 0.67488003
-4.8429999 -8.3932104 0.67488003
-4.7930002 -8.0932102 0.72488004
-4.743 -8.4432106 0.42488003
-4.743 -8.29321 0.52488005
-4.743 -8.2432098 0.42488003
-4.743 -8.2432098 0.52488005
-4.6930003 -8.0932102 0.47488004
-4.6430001 -8.1432104 0.52488005
-4.743 -8.1932106 0.57488
-4.743 -8.2432098 0.67488003
-4.6930003 -8.1932106 0.72488004
-4.6930003 -8.1432104 0.57488
-4.6930003 -8.0932102 0.62488002
-4.743 -8.1432104 0.67488003
-4.6930003 -8.1432104 0.72488004
-4.7930002 -8.29321 0.77488005
-5.1430001 -7.8932099 -0.32511997
-4.6930003 -7.8932099 -0.27511999
-4.743 -7.9932103 -0.17511998
-4.6930003 -7.9432101 -0.17511998
-4.743 -7.9432101 -0.12511998
-4.6930003 -7.9432101 -0.12511998
-4.6930003 -7.8932099 -0.12511998
-4.6430001 -7.9932103 -0.22511998
-4.6430001 -7.9932103 -0.17511998
-4.6430001 -7.9932103 -0.12511998
-4.6430001 -7.9432101 -0.22511998
-4.6430001 -7.9432101 -0.17511998
-4.6430001 -7.9432101 -0.12511998
-4.5929999 -7.8932099 -0.07511998
-4.6430001 -7.79321 -0.27511999
-4.5929999 -7.8432102 -0.27511999
-4.6930003 -7.8432102 -0.17511998
-4.6930003 -7.79321 -0.22511998
-4.6430001 -7.79321 -0.12511998
-4.5929999 -7.8432102 -0.12511998
-4.5929999 -7.8432102 -0.07511998
-4.6430001 -7.7432103 -0.17511998
-4.5929999 -7.7432103 -0.22511998
-4.5929999 -7.7432103 -0.17511998
-4.5929999 -7.6932101 -0.12511998
-4.743 -7.9932103 0.074880026
-4.743 -7.9932103 0.12488002
-4.6930003 -8.04321 0.074880026
-4.6930003 -7.9432101 0.024880024
-4.6930003 -7.8932099 0.024880024
-4.6930003 -7.9432101 0.074880026
-4.6930003 -7.9432101 0.12488002
-4.6930003 -7.8932099 0.074880026
-4.6930003 -7.8932099 0.12488002
-4.6430001 -7.9932103 -0.025119977
-4.6430001 -7.9932103 0.024880024
-4.6430001 -7.9932103 0.12488002
-4.6430001 -7.8932099 -0.025119977
-4.5929999 -7.9432101 0.074880026
-4.5929999 -7.8932099 0.074880026
-4.5929999 -7.8932099 0.12488002
-4.743 -7.9932103 0.17488003
-4.6930003 -8.04321 0.17488003
-4.6930003 -7.9932103 0.17488003
-4.6930003 -7.9932103 0.22488002
-4.6930003 -8.04321 0.27488002
-4.6930003 -8.04321 0.32488003
-4.743 -7.9432101 0.22488002
-4.6930003 -7.9432101 0.22488002
-4.743 -7.8932099 0.27488002
-4.6930003 -7.9432101 0.27488002
-4.6430001 -8.04321 0.17488003
-4.6430001 -8.04321 0.22488002
-4.6430001 -7.9932103 0.17488003
-4.6430001 -7.9932103 0.22488002
-4.6430001 -7.9932103 0.27488002
-4.6430001 -7.8932099 0.17488003
-4.6430001 -7.8932099 0.22488002
-4.6430001 -7.8932099 0.32488003
-4.5929999 -7.8932099 0.27488002
-4.6930003 -7.8432102 -0.025119977
-4.6930003 -7.8432102 0.024880024
-4.6930003 -7.8432102 0.074880026
-4.6930003 -7.8432102 0.12488002
-4.6930003 -7.79321 0.074880026
-4.6430001 -7.79321 -0.025119977
-4.5929999 -7.8432102 0.024880024
-4.5929999 -7.79321 0.024880024
-4.6430001 -7.79321 0.12488002
-4.6430001 -7.7432103 0.024880024
-4.6430001 -7.6932101 0.024880024
-4.5929999 -7.7432103 -0.025119977
-4.5929999 -7.6932101 0.024880024
-4.6930003 -7.79321 0.17488003
-4.6930003 -7.8432102 0.27488002
-4.6430001 -7.8432102 0.17488003
-4.6430001 -7.79321 0.17488003
-4.5929999 -7.8432102 0.17488003
-4.6430001 -7.8432102 0.27488002
-4.6430001 -7.79321 0.27488002
-4.6430001 -7.79321 0.32488003
-4.5929999 -7.8432102 0.27488002
-4.5929999 -7.8432102 0.32488003
-4.5929999 -7.79321 0.27488002
-4.6430001 -7.7432103 0.22488002
-4.5929999 -7.6932101 0.17488003
-4.5929999 -7.6932101 0.22488002
-4.6430001 -7.6932101 0.27488002
-4.8930001 -7.5932102 -0.37511998
-4.6430001 -7.5932102 -0.32511997
-4.5929999 -7.6432099 -0.22511998
-4.6430001 -7.6432099 -0.12511998
-4.5929999 -7.54321 -0.17511998
-4.5929999 -7.4432101 -0.27511999
-4.6430001 -7.6432099 -0.025119977
-4.5929999 -7.6432099 0.024880024
-4.5929999 -7.5932102 -0.025119977
-4.5929999 -7.5932102 0.024880024
-4.6430001 -7.5932102 0.074880026
-4.5929999 -7.6432099 0.074880026
-4.5929999 -7.6432099 0.12488002
-4.5929999 -7.5932102 0.074880026
-4.5929999 -7.5932102 0.12488002
-4.6430001 -7.54321 0.12488002
-4.6430001 -7.4932103 0.12488002
-4.6430001 -7.5932102 0.17488003
-4.6430001 -7.5932102 0.22488002
-4.5929999 -7.6432099 0.17488003
-4.5929999 -7.5932102 0.17488003
-4.5929999 -7.5932102 0.22488002
-4.6430001 -7.5932102 0.27488002
-4.5929999 -7.5932102 0.27488002
-4.6430001 -7.54321 0.17488003
-4.6430001 -7.4932103 0.17488003
-4.5929999 -7.54321 0.22488002
-4.743 -7.9932103 0.42488003
-4.6930003 -8.04321 0.37488002
-4.743 -8.04321 0.47488004
-4.6930003 -7.9932103 0.52488005
-4.6930003 -7.9432101 0.37488002
-4.743 -7.9432101 0.52488005
-4.6930003 -7.8932099 0.52488005
-4.6430001 -7.8932099 0.47488004
-4.6430001 -7.8932099 0.52488005
-4.743 -8.04321 0.57488
-4.743 -7.9932103 0.57488
-4.6930003 -7.9432101 0.57488
-4.6930003 -7.9432101 0.62488002
-4.6930003 -7.9432101 0.67488003
-4.6930003 -7.8932099 0.72488004
-4.6430001 -7.8932099 0.67488003
-4.6930003 -7.79321 0.42488003
-4.6430001 -7.8432102 0.37488002
-4.6430001 -7.79321 0.42488003
-4.6430001 -7.8432102 0.47488004
-4.6430001 -7.7432103 0.37488002
-4.6430001 -7.7432103 0.42488003
-4.5929999 -7.6932101 0.37488002
-4.5929999 -7.7432103 0.47488004
-4.5929999 -7.6932101 0.47488004
-4.5929999 -7.6932101 0.52488005
-4.6930003 -7.8432102 0.62488002
-4.6930003 -7.79321 0.62488002
-4.6930003 -7.8432102 0.67488003
-4.6430001 -7.8432102 0.62488002
-4.5929999 -7.6932101 0.62488002
-4.5929999 -7.6932101 0.67488003
-4.743 -8.04321 0.77488005
-4.6430001 -7.8432102 0.77488005
-4.6430001 -7.7432103 0.97488004
-4.6430001 -7.5932102 0.37488002
-4.5929999 -7.5932102 0.37488002
-4.5929999 -7.5932102 0.47488004
-4.5929999 -7.5932102 0.52488005
-4.6430001 -7.54321 0.37488002
-4.6430001 -7.54321 0.42488003
-4.5929999 -7.4932103 0.42488003
-4.6430001 -7.54321 0.52488005
-4.6430001 -7.4932103 0.52488005
-4.6430001 -7.6432099 0.57488
-4.6430001 -7.5932102 0.57488
-4.5929999 -7.6432099 0.62488002
-4.5929999 -7.5932102 0.57488
-4.5929999 -7.5932102 0.67488003
-4.5929999 -7.5932102 0.72488004
-4.6430001 -7.54321 0.62488002
-4.6430001 -7.4932103 0.57488
-4.5929999 -7.4932103 0.57488
-4.6430001 -7.54321 0.67488003
-4.5929999 -7.4932103 0.72488004
-4.5929999 -7.54321 1.0248801
-6.0929999 -8.5932102 1.2248801
-5.993 -8.6432104 1.2248801
-5.7930002 -8.54321 1.2748801
-5.743 -8.6432104 1.32488
-4.6430001 -7.8432102 1.17488
-4.3429999 -10.34321 -0.07511998
-4.1930003 -10.193211 -0.025119977
-3.993 -10.34321 -0.07511998
-3.993 -9.8932104 -0.07511998
-4.1430001 -9.7432098 -0.07511998
-3.8430002 -9.8932104 -0.27511999
-3.8930001 -9.7432098 -0.27511999
-3.8930001 -10.04321 -0.025119977
-4.5430002 -9.4932098 -0.27511999
-4.4430003 -9.4932098 -0.07511998
-4.2930002 -9.3932104 -0.32511997
-4.243 -9.3932104 -0.27511999
-4.2930002 -9.29321 -0.12511998
-4.5430002 -9.4932098 0.12488002
-4.5430002 -9.54321 0.17488003
-4.493 -9.3932104 0.024880024
-4.5430002 -9.3932104 0.12488002
-4.493 -9.3932104 0.074880026
-4.4430003 -9.04321 -0.32511997
-4.3930001 -9.04321 -0.27511999
-4.3429999 -9.1932106 -0.32511997
-4.2930002 -9.1932106 -0.12511998
-4.3429999 -9.1432104 -0.07511998
-4.2930002 -8.8932104 -0.32511997
-4.243 -8.9932098 -0.12511998
-4.1930003 -9.0932102 0.32488003
-4.1930003 -8.9932098 0.17488003
-4.1930003 -9.04321 0.27488002
-4.1930003 -8.9932098 0.27488002
-4.243 -8.9432106 0.32488003
-4.0430002 -9.5932102 -0.07511998
-4.0430002 -9.3932104 -0.32511997
-4.0430002 -9.29321 -0.32511997
-3.993 -9.3932104 -0.07511998
-3.993 -9.29321 -0.22511998
-3.993 -9.29321 -0.12511998
-3.8930001 -9.4932098 -0.32511997
-3.7930002 -9.5932102 -0.27511999
-3.8430002 -9.4432106 -0.32511997
-3.8430002 -9.3932104 -0.27511999
-3.8430002 -9.29321 -0.27511999
-3.8930001 -9.3932104 -0.17511998
-3.9430001 -9.29321 -0.22511998
-3.8930001 -9.29321 -0.22511998
-3.9430001 -9.3932104 -0.025119977
-4.0929999 -9.2432098 -0.27511999
-4.0929999 -9.1932106 -0.27511999
-4.0929999 -9.1932106 -0.22511998
-4.0929999 -9.1932106 -0.07511998
-4.0430002 -9.2432098 -0.12511998
-3.993 -9.2432098 -0.07511998
-3.993 -9.1932106 -0.07511998
-4.0929999 -8.9432106 -0.32511997
-4.0929999 -8.9432106 -0.27511999
-4.0929999 -9.04321 -0.17511998
-4.0929999 -8.9932098 -0.22511998
-4.0929999 -9.04321 -0.07511998
-4.0929999 -8.9932098 -0.12511998
-4.0929999 -8.9932098 -0.07511998
-4.1430001 -8.8932104 -0.17511998
-4.0929999 -8.8932104 -0.22511998
-4.0430002 -8.9932098 -0.22511998
-4.0430002 -8.9932098 -0.07511998
-3.993 -9.04321 -0.07511998
-3.993 -8.9932098 -0.12511998
-3.993 -8.9432106 -0.22511998
-3.993 -8.8932104 -0.22511998
-4.0430002 -8.9432106 -0.12511998
-4.0430002 -8.9432106 -0.07511998
-3.993 -8.9432106 -0.07511998
-3.8930001 -9.2432098 -0.27511999
-3.7930002 -9.1432104 -0.32511997
-3.7930002 -9.0932102 -0.27511999
-3.9430001 -9.2432098 -0.22511998
-3.9430001 -9.2432098 -0.07511998
-3.9430001 -9.1932106 -0.12511998
-3.8930001 -9.04321 -0.27511999
-3.8930001 -8.9932098 -0.32511997
-3.7930002 -9.04321 -0.32511997
-3.7930002 -8.8932104 -0.27511999
-3.8930001 -8.9932098 -0.17511998
-3.8930001 -8.9432106 -0.17511998
-3.8430002 -8.9932098 -0.17511998
-3.8430002 -8.9432106 -0.07511998
-3.993 -9.2432098 0.024880024
-4.0430002 -9.0932102 0.024880024
-3.993 -9.0932102 -0.025119977
-3.993 -9.1432104 0.074880026
-3.993 -9.1432104 0.12488002
-4.1430001 -9.0932102 0.32488003
-3.993 -9.1432104 0.17488003
-3.993 -9.1432104 0.27488002
-4.0929999 -9.04321 -0.025119977
-4.0929999 -8.9932098 -0.025119977
-4.0929999 -9.04321 0.074880026
-4.1430001 -8.9432106 -0.025119977
-4.0929999 -8.9432106 0.024880024
-4.0929999 -8.9432106 0.074880026
-3.993 -9.04321 -0.025119977
-3.993 -9.04321 0.024880024
-4.0430002 -9.04321 0.074880026
-4.0430002 -9.04321 0.12488002
-4.0430002 -8.9932098 0.074880026
-4.0430002 -8.9932098 0.12488002
-3.993 -9.04321 0.074880026
-4.0430002 -8.9432106 -0.025119977
-4.0430002 -8.8932104 0.024880024
-3.993 -8.8932104 0.024880024
-4.1430001 -9.04321 0.22488002
-4.0929999 -8.9932098 0.17488003
-4.1430001 -8.9932098 0.32488003
-4.0929999 -9.04321 0.27488002
-4.0929999 -9.04321 0.32488003
-4.0929999 -8.9432106 0.32488003
-4.0430002 -9.04321 0.17488003
-4.0430002 -9.04321 0.22488002
-4.0430002 -8.9932098 0.17488003
-3.993 -9.04321 0.17488003
-3.993 -9.04321 0.22488002
-4.0430002 -9.04321 0.27488002
-3.993 -9.04321 0.32488003
-3.993 -8.9932098 0.27488002
-3.993 -8.9932098 0.32488003
-3.9430001 -9.0932102 0.22488002
-3.9430001 -9.1432104 0.27488002
-3.9430001 -9.0932102 0.27488002
-3.9430001 -9.0932102 0.32488003
-3.8930001 -9.1432104 0.27488002
-3.9430001 -8.9432106 -0.025119977
-3.8930001 -8.9432106 -0.025119977
-4.3930001 -8.8932104 0.47488004
-4.2930002 -8.9932098 0.42488003
-4.2930002 -8.9932098 0.47488004
-4.243 -8.9932098 0.37488002
-4.243 -8.9932098 0.42488003
-4.1930003 -9.04321 0.42488003
-4.1930003 -8.9932098 0.37488002
-4.243 -9.04321 0.47488004
-4.243 -8.9932098 0.47488004
-4.1930003 -8.9932098 0.47488004
-4.1930003 -8.9932098 0.52488005
-4.243 -8.9432106 0.47488004
-4.1930003 -8.9432106 0.47488004
-4.1930003 -8.9432106 0.52488005
-4.2930002 -8.9432106 0.57488
-4.3429999 -8.9432106 0.67488003
-4.243 -8.9432106 0.57488
-4.243 -8.8932104 0.57488
-3.993 -9.29321 0.52488005
-4.0430002 -9.29321 0.62488002
-4.1430001 -9.0932102 0.37488002
-4.0929999 -9.1432104 0.52488005
-4.0430002 -9.1432104 0.37488002
-4.0430002 -9.0932102 0.37488002
-3.993 -9.1432104 0.42488003
-3.993 -9.0932102 0.37488002
-3.993 -9.0932102 0.42488003
-4.0430002 -9.0932102 0.47488004
-3.993 -9.1432104 0.52488005
-4.0929999 -9.0932102 0.67488003
-3.993 -9.1932106 0.62488002
-4.1430001 -9.04321 0.37488002
-4.1430001 -9.04321 0.42488003
-4.1430001 -8.9932098 0.37488002
-4.1430001 -8.9932098 0.42488003
-4.0929999 -9.04321 0.52488005
-4.0929999 -8.9932098 0.47488004
-4.0430002 -9.04321 0.37488002
-3.993 -9.04321 0.37488002
-4.0430002 -9.04321 0.47488004
-4.0430002 -9.04321 0.52488005
-4.1430001 -8.9932098 0.62488002
-4.0929999 -9.04321 0.57488
-4.1430001 -8.9432106 0.57488
-4.0929999 -8.9432106 0.57488
-4.0929999 -8.8932104 0.57488
-4.0430002 -8.9932098 0.57488
-3.993 -9.04321 0.62488002
-4.0430002 -9.04321 0.67488003
-4.0430002 -9.04321 0.72488004
-3.993 -8.9432106 0.62488002
-3.9430001 -9.0932102 0.37488002
-3.9430001 -9.1432104 0.62488002
-3.9430001 -9.0932102 0.57488
-3.9430001 -9.0932102 0.62488002
-3.9430001 -8.8932104 0.57488
-3.8930001 -8.9432106 0.62488002
-3.8930001 -8.8932104 0.57488
-3.5930002 -10.14321 -0.22511998
-3.3930001 -10.09321 -0.27511999
-3.3930001 -10.14321 -0.22511998
-3.5930002 -10.39321 -0.025119977
-3.743 -10.193211 -0.025119977
-3.6430001 -9.9932098 -0.32511997
-3.5930002 -9.8932104 -0.22511998
-3.6930001 -9.6932106 -0.27511999
-3.6430001 -9.6932106 -0.32511997
-3.4430001 -10.04321 -0.32511997
-3.4430001 -9.9432106 -0.22511998
-3.493 -9.79321 -0.27511999
-3.3930001 -9.6932106 -0.27511999
-3.5430002 -9.79321 -0.22511998
-3.3930001 -9.79321 -0.07511998
-3.1930001 -10.34321 -0.27511999
-3.3430002 -10.09321 -0.22511998
-3.2930002 -10.09321 -0.07511998
-3.243 -10.24321 -0.22511998
-2.993 -10.29321 -0.27511999
-3.0930002 -10.29321 -0.22511998
-3.243 -10.39321 -0.025119977
-3.243 -9.9432106 -0.27511999
-3.2930002 -9.79321 -0.27511999
-3.2930002 -9.7432098 -0.32511997
-3.1930001 -9.8432102 -0.32511997
-3.243 -9.7432098 -0.07511998
-3.0930002 -9.9432106 -0.27511999
-3.0430002 -9.9932098 -0.32511997
-2.993 -10.04321 -0.07511998
-3.0430002 -9.8432102 -0.07511998
-3.743 -9.5932102 -0.27511999
-3.6930001 -9.54321 -0.32511997
-3.5930002 -9.5932102 -0.32511997
-3.6930001 -9.4932098 -0.22511998
-3.743 -9.3432102 -0.27511999
-3.5930002 -9.3432102 -0.32511997
-3.6930001 -9.4432106 -0.07511998
-3.5430002 -9.6432104 -0.27511999
-3.493 -9.4932098 -0.32511997
-3.3930001 -9.5932102 -0.32511997
-3.5430002 -9.54321 -0.07511998
-3.4430001 -9.54321 -0.07511998
-3.5430002 -9.29321 -0.07511998
-3.5930002 -9.1932106 -0.27511999
-3.6430001 -9.1432104 -0.32511997
-3.5930002 -9.0932102 -0.07511998
-3.743 -9.04321 -0.32511997
-3.6930001 -8.9932098 -0.32511997
-3.743 -8.9432106 -0.32511997
-3.6930001 -8.8932104 -0.12511998
-3.493 -9.1432104 -0.32511997
-3.4430001 -9.2432098 -0.27511999
-3.493 -9.04321 -0.32511997
-3.493 -8.9432106 -0.32511997
-3.493 -8.8932104 -0.27511999
-3.4430001 -8.9932098 -0.27511999
-3.4430001 -8.8932104 -0.27511999
-3.3930001 -8.9432106 -0.22511998
-3.2930002 -9.5932102 -0.27511999
-3.1930001 -9.4932098 -0.27511999
-3.3430002 -9.5932102 -0.07511998
-3.2930002 -9.3432102 -0.32511997
-3.0430002 -9.5932102 -0.27511999
-2.993 -9.5932102 -0.32511997
-3.0930002 -9.3432102 -0.32511997
-3.3430002 -9.2432098 -0.32511997
-3.2930002 -9.2432098 -0.27511999
-3.3430002 -9.0932102 -0.27511999
-3.1930001 -9.1932106 -0.27511999
-3.2930002 -8.8932104 -0.32511997
-3.243 -8.9932098 -0.32511997
-3.1930001 -9.04321 -0.27511999
-3.243 -8.8932104 -0.27511999
-3.1430001 -9.1932106 -0.32511997
-3.0430002 -9.1932106 -0.27511999
-2.993 -9.1932106 -0.27511999
-3.0430002 -9.0932102 -0.27511999
-3.0930002 -9.2432098 -0.22511998
-3.0430002 -9.0932102 -0.12511998
-3.0430002 -9.04321 -0.27511999
-3.1430001 -8.9432106 -0.22511998
-4.3429999 -8.7432098 -0.32511997
-4.1930003 -8.79321 -0.27511999
-4.1930003 -8.8432102 -0.22511998
-4.1930003 -8.8432102 -0.07511998
-4.1930003 -8.79321 -0.12511998
-4.1930003 -8.79321 -0.07511998
-4.243 -8.7432098 -0.22511998
-4.1930003 -8.7432098 -0.22511998
-4.1930003 -8.7432098 -0.17511998
-4.1930003 -8.7432098 -0.12511998
-4.3429999 -8.5932102 -0.27511999
-4.2930002 -8.6432104 -0.27511999
-4.2930002 -8.7432098 -0.025119977
-4.1930003 -8.7432098 -0.025119977
-4.0929999 -8.7432098 -0.27511999
-4.1430001 -8.8432102 -0.22511998
-4.1430001 -8.8432102 -0.17511998
-4.1430001 -8.79321 -0.17511998
-4.1430001 -8.79321 -0.12511998
-4.1430001 -8.79321 -0.07511998
-4.0929999 -8.8432102 -0.12511998
-4.0929999 -8.7432098 -0.22511998
-4.0430002 -8.8432102 -0.17511998
-3.8430002 -8.79321 -0.32511997
-3.8430002 -8.79321 -0.27511999
-3.7930002 -8.8432102 -0.32511997
-3.8930001 -8.8432102 -0.22511998
-3.9430001 -8.4932098 -0.27511999
-3.8930001 -8.4932098 -0.32511997
-3.8430002 -8.5932102 -0.37511998
-3.7930002 -8.5932102 -0.32511997
-3.7930002 -8.5932102 -0.27511999
-4.1430001 -8.8432102 -0.025119977
-4.1430001 -8.8432102 0.024880024
-4.1430001 -8.8432102 0.074880026
-4.1430001 -8.3932104 -0.27511999
-3.993 -8.3432102 -0.32511997
-3.993 -8.1932106 -0.32511997
-3.8930001 -8.3932104 -0.37511998
-3.8930001 -8.3432102 -0.37511998
-3.9430001 -8.3432102 -0.32511997
-3.8930001 -8.0932102 -0.32511997
-3.8430002 -8.0932102 -0.27511999
-4.1930003 -8.8432102 0.52488005
-4.243 -8.7432098 0.52488005
-4.243 -8.8432102 0.57488
-4.243 -8.79321 0.57488
-4.243 -8.79321 0.62488002
-4.1930003 -8.7432098 0.57488
-4.1930003 -8.6932106 0.62488002
-4.243 -8.6432104 0.52488005
-4.2930002 -8.54321 0.62488002
-4.243 -8.6432104 0.57488
-4.243 -8.5932102 0.57488
-4.243 -8.5932102 0.62488002
-4.1930003 -8.6432104 0.57488
-4.1430001 -8.8432102 0.57488
-4.0929999 -8.79321 0.57488
-4.0929999 -8.7432098 0.57488
-4.0929999 -8.7432098 0.62488002
-3.993 -8.79321 0.62488002
-4.0430002 -8.7432098 0.62488002
-4.0430002 -8.6932106 0.57488
-3.993 -8.6932106 0.57488
-4.0929999 -8.6432104 0.57488
-4.0929999 -8.6432104 0.67488003
-3.9430001 -8.79321 0.57488
-3.8430002 -8.7432098 0.62488002
-3.8930001 -8.8432102 0.77488005
-4.3930001 -8.04321 -0.32511997
-4.5430002 -7.8432102 -0.27511999
-4.5430002 -7.79321 -0.22511998
-4.493 -7.8432102 -0.12511998
-4.5430002 -7.79321 0.074880026
-4.493 -7.79321 0.074880026
-4.5430002 -7.6932101 0.22488002
-4.493 -7.4932103 -0.27511999
-4.5430002 -7.6432099 -0.17511998
-4.5430002 -7.5932102 -0.07511998
-4.4430003 -7.6432099 -0.17511998
-4.5430002 -7.4432101 -0.37511998
-4.493 -7.3932099 -0.32511997
-4.4430003 -7.29321 -0.37511998
-4.5430002 -7.6432099 -0.025119977
-4.5430002 -7.6432099 0.074880026
-4.5430002 -7.5932102 0.074880026
-4.5430002 -7.54321 0.024880024
-4.5430002 -7.5932102 0.17488003
-4.5430002 -7.6432099 0.27488002
-4.5430002 -7.54321 0.17488003
-4.5430002 -7.54321 0.27488002
-3.9430001 -7.9432101 -0.32511997
-3.993 -7.4932103 -0.17511998
-3.7930002 -7.29321 -0.32511997
-4.5430002 -7.6432099 0.37488002
-4.5430002 -7.5932102 0.42488003
-3.743 -8.7432098 -0.27511999
-3.6930001 -8.6932106 -0.32511997
-3.6430001 -8.79321 -0.27511999
-3.5930002 -8.8432102 -0.32511997
-3.5930002 -8.6932106 -0.32511997
-3.743 -8.6432104 -0.12511998
-3.3930001 -8.79321 -0.32511997
-3.493 -8.4932098 -0.32511997
-3.4430001 -8.6432104 -0.32511997
-3.6930001 -8.4432106 -0.32511997
-3.6930001 -8.3432102 -0.32511997
-3.743 -8.1932106 -0.17511998
-3.5430002 -8.3932104 -0.32511997
-3.5430002 -8.3432102 -0.32511997
-3.5430002 -8.29321 -0.17511998
-3.3930001 -8.4432106 -0.17511998
-3.493 -8.1932106 -0.32511997
-3.1930001 -8.8432102 -0.12511998
-3.2930002 -8.5932102 -0.27511999
-3.1930001 -8.4932098 -0.32511997
-3.243 -8.6432104 -0.22511998
-3.243 -8.5932102 -0.12511998
-3.0430002 -8.79321 -0.27511999
-3.0430002 -8.7432098 -0.22511998
-3.0930002 -8.4932098 -0.27511999
-3.0430002 -8.6432104 -0.27511999
-3.0430002 -8.5932102 -0.27511999
-3.0430002 -8.54321 -0.32511997
-3.3430002 -8.4432106 -0.32511997
-3.2930002 -8.29321 -0.32511997
-3.1930001 -8.3932104 -0.27511999
-3.2930002 -8.4432106 -0.22511998
-3.3430002 -8.1432104 -0.32511997
-3.243 -8.2432098 -0.27511999
-3.0930002 -8.4432106 -0.32511997
-3.0430002 -8.3932104 -0.27511999
-2.993 -8.4432106 -0.22511998
-3.1430001 -8.2432098 -0.32511997
-2.993 -8.0932102 -0.37511998
-2.993 -8.0932102 -0.32511997
-3.6930001 -7.9432101 -0.32511997
-3.5930002 -7.9932103 -0.32511997
-3.743 -7.7432103 -0.32511997
-3.6430001 -7.79321 -0.32511997
-3.5430002 -7.9932103 -0.32511997
-3.3930001 -7.9432101 -0.32511997
-3.493 -7.8432102 -0.32511997
-3.5430002 -7.7432103 -0.32511997
-3.3930001 -7.79321 -0.37511998
-3.3930001 -7.8432102 -0.32511997
-3.3930001 -7.6932101 -0.37511998
-3.6930001 -7.6432099 -0.32511997
-3.6930001 -7.4932103 -0.32511997
-3.5430002 -7.6432099 -0.32511997
-3.4430001 -7.6432099 -0.37511998
-3.3930001 -7.29321 0.17488003
-3.3930001 -7.29321 0.22488002
-3.4430001 -7.29321 0.27488002
-3.2930002 -7.9932103 -0.32511997
-3.2930002 -7.8932099 -0.32511997
-3.243 -7.9932103 -0.32511997
-3.1930001 -7.9432101 -0.32511997
-3.1930001 -7.8932099 -0.32511997
-3.2930002 -7.8432102 -0.32511997
-3.243 -7.6932101 -0.32511997
-3.1930001 -7.7432103 -0.32511997
-3.0930002 -7.9932103 -0.37511998
-3.0930002 -8.04321 -0.32511997
-3.1430001 -7.9432101 -0.37511998
-3.0930002 -7.9432101 -0.32511997
-3.0430002 -8.04321 -0.27511999
-2.993 -7.9432101 -0.27511999
-3.0930002 -7.8432102 -0.32511997
-2.993 -7.7432103 -0.32511997
-3.2930002 -7.29321 -0.32511997
-3.243 -7.4432101 -0.32511997
-3.243 -7.3932099 -0.32511997
-3.1930001 -7.4432101 -0.32511997
-3.0930002 -7.6432099 -0.32511997
-3.1430001 -7.54321 -0.32511997
-3.1430001 -7.54321 -0.27511999
-3.1430001 -7.4932103 -0.27511999
-3.0430002 -7.4932103 -0.32511997
-3.0930002 -7.4932103 -0.22511998
-3.0930002 -7.4932103 -0.17511998
-3.0930002 -7.4932103 -0.12511998
-3.0930002 -7.4932103 -0.07511998
-3.0430002 -7.5932102 -0.17511998
-3.0430002 -7.54321 -0.22511998
-3.0430002 -7.4932103 -0.22511998
-3.0430002 -7.4932103 -0.17511998
-2.993 -7.4932103 -0.17511998
-3.0430002 -7.54321 -0.07511998
-3.1430001 -7.4432101 -0.27511999
-3.0930002 -7.4432101 -0.32511997
-3.0930002 -7.3932099 -0.32511997
-2.993 -7.4432101 -0.32511997
-3.0430002 -7.3432102 -0.32511997
-3.0430002 -7.29321 -0.32511997
-3.0930002 -7.4432101 -0.22511998
-3.0430002 -7.4932103 -0.025119977
-3.5430002 -7.54321 0.77488005
-3.493 -7.4432101 0.77488005
-4.5929999 -7.1432099 -0.27511999
-4.5929999 -7.0932102 -0.32511997
-4.5929999 -7.1932101 -0.07511998
-4.5929999 -7.1432099 -0.12511998
-4.5929999 -7.1432099 -0.07511998
-4.5929999 -6.9932103 -0.12511998
-4.5929999 -7.1932101 0.074880026
-4.5929999 -7.1432099 -0.025119977
-4.5929999 -7.1432099 0.024880024
-4.5929999 -7.1432099 0.12488002
-4.5929999 -7.2432103 0.22488002
-4.5929999 -7.1932101 0.22488002
-4.5929999 -7.1432099 0.17488003
-4.5929999 -7.1432099 0.27488002
-4.5929999 -7.0932102 0.27488002
-4.5929999 -6.9932103 0.074880026
-4.5929999 -6.9432101 0.12488002
-4.5929999 -6.9932103 0.17488003
-4.5929999 -6.9932103 0.32488003
-4.5929999 -6.9432101 0.17488003
-4.5929999 -6.9432101 0.27488002
-4.5929999 -6.8432102 -0.07511998
-4.5929999 -6.8432102 0.27488002
-4.5929999 -7.1932101 0.42488003
-4.5929999 -7.1432099 0.42488003
-4.5929999 -7.0932102 0.42488003
-4.5929999 -7.0932102 0.57488
-4.5929999 -7.04321 0.37488002
-4.5929999 -6.9932103 0.37488002
-4.5929999 -7.04321 0.62488002
-4.5929999 -7.1932101 0.82488006
-4.5929999 -7.04321 0.87488002
-4.5929999 -6.8432102 0.42488003
-4.5929999 -6.79321 0.57488
-4.5929999 -6.6432099 0.57488
-4.5430002 -7.1932101 -0.27511999
-4.493 -7.1432099 -0.32511997
-4.3930001 -7.1432099 -0.37511998
-4.4430003 -7.0932102 -0.32511997
-4.3930001 -7.0932102 -0.27511999
-4.5430002 -7.1932101 -0.17511998
-4.493 -7.1432099 -0.22511998
-4.5430002 -7.1432099 -0.07511998
-4.493 -7.0932102 -0.07511998
-4.4430003 -7.1932101 -0.22511998
-4.5430002 -6.9932103 -0.37511998
-4.5430002 -7.04321 -0.27511999
-4.5430002 -6.9932103 -0.32511997
-4.493 -7.04321 -0.27511999
-4.493 -6.9932103 -0.32511997
-4.493 -6.8932099 -0.37511998
-4.5430002 -6.9432101 -0.32511997
-4.493 -6.8932099 -0.32511997
-4.4430003 -7.04321 -0.37511998
-4.3930001 -6.9932103 -0.37511998
-4.5430002 -7.04321 -0.17511998
-4.493 -6.9932103 -0.17511998
-4.5430002 -7.04321 -0.12511998
-4.5430002 -7.04321 -0.07511998
-4.5430002 -6.9932103 -0.07511998
-4.493 -6.8932099 -0.22511998
-4.493 -6.8932099 -0.17511998
-4.5430002 -6.9432101 -0.12511998
-4.5430002 -6.8932099 -0.12511998
-4.493 -6.9432101 -0.12511998
-4.4430003 -7.04321 -0.22511998
-4.4430003 -7.04321 -0.17511998
-4.4430003 -6.9932103 -0.17511998
-4.4430003 -6.8932099 -0.22511998
-4.3930001 -6.8932099 -0.22511998
-4.4430003 -6.8932099 -0.07511998
-4.3930001 -6.9432101 -0.12511998
-4.2930002 -7.2432103 -0.17511998
-4.3429999 -7.0932102 -0.17511998
-4.1930003 -7.2432103 -0.17511998
-4.3429999 -7.04321 -0.22511998
-4.2930002 -6.8932099 -0.17511998
-4.243 -6.8932099 -0.07511998
-4.1930003 -6.8932099 -0.12511998
-4.493 -7.1932101 -0.025119977
-4.5430002 -7.1932101 0.12488002
-4.493 -7.2432103 0.074880026
-4.5430002 -7.1432099 0.024880024
-4.5430002 -7.0932102 -0.025119977
-4.493 -7.0932102 0.024880024
-4.5430002 -7.1432099 0.074880026
-4.5430002 -7.1432099 0.12488002
-4.5430002 -7.0932102 0.074880026
-4.5430002 -7.0932102 0.12488002
-4.493 -7.0932102 0.12488002
-4.4430003 -7.2432103 0.024880024
-4.5430002 -7.1932101 0.17488003
-4.5430002 -7.1932101 0.32488003
-4.5430002 -7.1432099 0.17488003
-4.5430002 -7.1432099 0.22488002
-4.5430002 -7.0932102 0.17488003
-4.5430002 -7.1432099 0.32488003
-4.5430002 -7.0932102 0.27488002
-4.493 -7.0932102 0.27488002
-4.4430003 -7.0932102 0.17488003
-4.5430002 -7.04321 -0.025119977
-4.5430002 -7.04321 0.024880024
-4.5430002 -6.9932103 0.024880024
-4.5430002 -7.04321 0.12488002
-4.5430002 -6.9932103 0.074880026
-4.5430002 -6.9932103 0.12488002
-4.493 -6.9932103 0.074880026
-4.5430002 -6.8932099 0.024880024
-4.493 -6.9432101 -0.025119977
-4.493 -6.8932099 -0.025119977
-4.493 -6.8932099 0.024880024
-4.5430002 -6.9432101 0.074880026
-4.5430002 -6.9432101 0.12488002
-4.5430002 -6.8932099 0.12488002
-4.493 -6.9432101 0.12488002
-4.493 -6.8932099 0.074880026
-4.493 -6.8932099 0.12488002
-4.3930001 -7.04321 0.024880024
-4.4430003 -7.04321 0.074880026
-4.4430003 -6.9932103 0.074880026
-4.3930001 -6.8932099 0.024880024
-4.493 -7.04321 0.22488002
-4.5430002 -7.04321 0.27488002
-4.493 -6.9932103 0.32488003
-4.5430002 -6.9432101 0.17488003
-4.5430002 -6.9432101 0.22488002
-4.5430002 -6.8932099 0.17488003
-4.5430002 -6.8932099 0.22488002
-4.493 -6.8932099 0.17488003
-4.5430002 -6.8932099 0.27488002
-4.5430002 -6.8932099 0.32488003
-4.4430003 -6.9432101 0.17488003
-4.2930002 -6.8932099 -0.025119977
-4.243 -7.04321 0.074880026
-4.1930003 -6.9432101 0.074880026
-4.2930002 -6.9932103 0.27488002
-4.1930003 -6.9432101 0.22488002
-4.1930003 -6.8932099 0.32488003
-4.5430002 -6.8432102 -0.37511998
-4.5430002 -6.8432102 -0.32511997
-4.493 -6.8432102 -0.27511999
-4.493 -6.79321 -0.32511997
-4.5430002 -6.7432103 -0.37511998
-4.493 -6.7432103 -0.37511998
-4.5430002 -6.7432103 -0.32511997
-4.5430002 -6.6932101 -0.27511999
-4.493 -6.6932101 -0.27511999
-4.3930001 -6.79321 -0.37511998
-4.4430003 -6.79321 -0.32511997
-4.4430003 -6.79321 -0.27511999
-4.3930001 -6.6932101 -0.27511999
-4.493 -6.8432102 -0.22511998
-4.493 -6.79321 -0.17511998
-4.5430002 -6.8432102 -0.07511998
-4.493 -6.79321 -0.07511998
-4.493 -6.7432103 -0.22511998
-4.493 -6.6932101 -0.22511998
-4.5430002 -6.7432103 -0.12511998
-4.5430002 -6.6932101 -0.12511998
-4.493 -6.6932101 -0.07511998
-4.3930001 -6.79321 -0.22511998
-4.3930001 -6.8432102 -0.07511998
-4.4430003 -6.7432103 -0.22511998
-4.4430003 -6.6932101 -0.22511998
-4.3930001 -6.7432103 -0.17511998
-4.3930001 -6.6932101 -0.22511998
-4.4430003 -6.6932101 -0.12511998
-4.3930001 -6.7432103 -0.12511998
-4.493 -6.6432099 -0.37511998
-4.493 -6.5932102 -0.37511998
-4.493 -6.6432099 -0.32511997
-4.493 -6.5932102 -0.32511997
-4.493 -6.54321 -0.27511999
-4.493 -6.4932103 -0.32511997
-4.4430003 -6.5932102 -0.37511998
-4.4430003 -6.6432099 -0.27511999
-4.4430003 -6.5932102 -0.27511999
-4.3930001 -6.6432099 -0.27511999
-4.3930001 -6.5932102 -0.32511997
-4.4430003 -6.4932103 -0.27511999
-4.493 -6.6432099 -0.22511998
-4.493 -6.6432099 -0.17511998
-4.5430002 -6.6432099 -0.07511998
-4.493 -6.5932102 -0.07511998
-4.5430002 -6.4932103 -0.07511998
-4.493 -6.54321 -0.07511998
-4.493 -6.4932103 -0.12511998
-4.493 -6.4932103 -0.07511998
-4.4430003 -6.5932102 -0.22511998
-4.3930001 -6.6432099 -0.22511998
-4.4430003 -6.6432099 -0.07511998
-4.4430003 -6.54321 -0.22511998
-4.4430003 -6.4932103 -0.22511998
-4.4430003 -6.4932103 -0.17511998
-4.3930001 -6.4932103 -0.22511998
-4.4430003 -6.54321 -0.12511998
-4.3429999 -6.7432103 -0.27511999
-4.1930003 -6.8432102 -0.27511999
-4.2930002 -6.8432102 -0.22511998
-4.243 -6.79321 -0.22511998
-4.1930003 -6.8432102 -0.22511998
-4.243 -6.7432103 -0.22511998
-4.1930003 -6.7432103 -0.07511998
-4.1930003 -6.6432099 -0.37511998
-4.243 -6.54321 -0.37511998
-4.1930003 -6.4932103 -0.37511998
-4.3429999 -6.5932102 -0.17511998
-4.3429999 -6.5932102 -0.07511998
-4.493 -6.8432102 -0.025119977
-4.493 -6.79321 -0.025119977
-4.493 -6.79321 0.024880024
-4.5430002 -6.8432102 0.074880026
-4.5430002 -6.79321 0.074880026
-4.493 -6.79321 0.074880026
-4.493 -6.79321 0.12488002
-4.493 -6.7432103 0.024880024
-4.493 -6.6932101 -0.025119977
-4.5430002 -6.7432103 0.074880026
-4.5430002 -6.6932101 0.074880026
-4.493 -6.7432103 0.12488002
-4.493 -6.6932101 0.12488002
-4.4430003 -6.8432102 0.074880026
-4.4430003 -6.7432103 0.074880026
-4.4430003 -6.7432103 0.12488002
-4.4430003 -6.6932101 0.074880026
-4.4430003 -6.6932101 0.12488002
-4.5430002 -6.79321 0.22488002
-4.493 -6.8432102 0.17488003
-4.493 -6.79321 0.22488002
-4.5430002 -6.8432102 0.32488003
-4.493 -6.79321 0.32488003
-4.5430002 -6.7432103 0.17488003
-4.5430002 -6.7432103 0.22488002
-4.493 -6.6932101 0.22488002
-4.5430002 -6.7432103 0.27488002
-4.5430002 -6.6932101 0.32488003
-4.493 -6.6932101 0.27488002
-4.4430003 -6.8432102 0.22488002
-4.4430003 -6.79321 0.17488003
-4.4430003 -6.8432102 0.32488003
-4.4430003 -6.79321 0.32488003
-4.4430003 -6.6932101 0.17488003
-4.4430003 -6.6932101 0.27488002
-4.5430002 -6.6432099 0.074880026
-4.5430002 -6.5932102 0.074880026
-4.493 -6.6432099 0.074880026
-4.493 -6.5932102 0.074880026
-4.493 -6.5932102 0.12488002
-4.493 -6.54321 -0.025119977
-4.493 -6.4932103 -0.025119977
-4.5430002 -6.4932103 0.074880026
-4.4430003 -6.6432099 0.074880026
-4.4430003 -6.5932102 0.074880026
-4.4430003 -6.54321 -0.025119977
-4.4430003 -6.54321 0.074880026
-4.4430003 -6.54321 0.12488002
-4.4430003 -6.4932103 0.074880026
-4.4430003 -6.4932103 0.12488002
-4.5430002 -6.5932102 0.17488003
-4.5430002 -6.5932102 0.22488002
-4.493 -6.6432099 0.17488003
-4.493 -6.6432099 0.22488002
-4.493 -6.5932102 0.22488002
-4.493 -6.6432099 0.27488002
-4.493 -6.6432099 0.32488003
-4.493 -6.5932102 0.32488003
-4.5430002 -6.54321 0.22488002
-4.493 -6.54321 0.17488003
-4.493 -6.54321 0.22488002
-4.493 -6.4932103 0.17488003
-4.493 -6.54321 0.27488002
-4.4430003 -6.5932102 0.17488003
-4.4430003 -6.4932103 0.17488003
-4.3930001 -6.54321 0.17488003
-4.4430003 -6.4932103 0.32488003
-4.3930001 -6.54321 0.27488002
-4.3930001 -6.54321 0.32488003
-4.3930001 -6.4932103 0.32488003
-4.1930003 -6.8432102 0.12488002
-4.1930003 -6.8432102 0.17488003
-4.1930003 -6.8432102 0.32488003
-3.993 -7.1932101 -0.32511997
-4.0430002 -7.0932102 -0.27511999
-3.993 -7.1432099 -0.27511999
-4.0430002 -7.2432103 -0.17511998
-3.993 -7.1932101 -0.07511998
-4.0430002 -7.1432099 -0.17511998
-3.993 -7.1432099 -0.22511998
-4.0430002 -7.0932102 -0.07511998
-3.993 -7.0932102 -0.07511998
-4.1430001 -6.9932103 -0.27511999
-4.0430002 -7.04321 -0.37511998
-3.993 -6.9932103 -0.37511998
-3.993 -7.04321 -0.27511999
-4.0430002 -6.8932099 -0.37511998
-3.993 -6.8932099 -0.32511997
-3.993 -6.8932099 -0.27511999
-4.1430001 -7.04321 -0.17511998
-4.1430001 -6.9932103 -0.22511998
-4.0929999 -6.9932103 -0.22511998
-4.0929999 -6.9932103 -0.17511998
-4.0929999 -6.9932103 -0.07511998
-4.1430001 -6.8932099 -0.12511998
-4.0929999 -6.9432101 -0.12511998
-4.0929999 -6.8932099 -0.07511998
-3.993 -7.04321 -0.22511998
-4.0430002 -7.04321 -0.12511998
-4.0430002 -7.04321 -0.07511998
-4.0430002 -6.9932103 -0.07511998
-4.0430002 -6.8932099 -0.22511998
-4.0430002 -6.8932099 -0.12511998
-4.0430002 -6.8932099 -0.07511998
-3.9430001 -7.0932102 -0.27511999
-3.8430002 -7.2432103 -0.32511997
-3.7930002 -7.0932102 -0.37511998
-3.8430002 -7.0932102 -0.32511997
-3.8930001 -7.04321 -0.37511998
-3.9430001 -6.9432101 -0.42512
-3.7930002 -6.8932099 -0.32511997
-4.0929999 -7.04321 -0.025119977
-4.0929999 -6.9932103 0.024880024
-4.1430001 -6.8932099 -0.025119977
-4.0929999 -6.9432101 -0.025119977
-4.0929999 -6.9432101 0.024880024
-4.0929999 -6.8932099 -0.025119977
-4.0929999 -6.8932099 0.024880024
-4.1430001 -6.8932099 0.074880026
-4.0929999 -6.9432101 0.12488002
-4.0929999 -6.8932099 0.074880026
-4.0929999 -6.8932099 0.12488002
-3.993 -7.04321 -0.025119977
-4.0430002 -6.9432101 0.024880024
-4.0430002 -6.8932099 -0.025119977
-4.0430002 -6.9432101 0.12488002
-4.0430002 -6.8932099 0.12488002
-3.993 -6.8932099 0.12488002
-4.0929999 -6.9432101 0.22488002
-4.0929999 -6.8932099 0.17488003
-4.0929999 -6.8932099 0.22488002
-4.1430001 -6.8932099 0.27488002
-4.1430001 -6.8932099 0.32488003
-4.0929999 -6.8932099 0.32488003
-3.993 -6.9932103 0.17488003
-3.993 -6.9932103 0.32488003
-4.0430002 -6.9432101 0.17488003
-4.0430002 -6.8932099 0.17488003
-3.993 -6.9432101 0.22488002
-4.0430002 -6.8932099 0.27488002
-4.0430002 -6.8932099 0.32488003
-3.993 -6.9432101 0.27488002
-3.993 -6.9432101 0.32488003
-3.993 -6.8932099 0.32488003
-3.9430001 -6.9432101 0.22488002
-4.0929999 -6.79321 -0.37511998
-4.0929999 -6.8432102 -0.27511999
-4.0929999 -6.6932101 -0.37511998
-4.1430001 -6.7432103 -0.27511999
-4.1430001 -6.79321 -0.17511998
-4.1430001 -6.8432102 -0.12511998
-4.1430001 -6.8432102 -0.07511998
-4.0929999 -6.8432102 -0.07511998
-4.0929999 -6.79321 -0.07511998
-4.1430001 -6.7432103 -0.22511998
-4.1430001 -6.7432103 -0.07511998
-3.993 -6.79321 -0.22511998
-4.0430002 -6.7432103 -0.17511998
-4.1430001 -6.5932102 -0.37511998
-4.0430002 -6.6432099 -0.37511998
-3.993 -6.6432099 -0.42512
-3.9430001 -6.6932101 -0.27511999
-3.8930001 -6.7432103 -0.27511999
-3.8930001 -6.6932101 -0.32511997
-3.9430001 -6.7432103 -0.17511998
-3.8430002 -6.4932103 -0.37511998
-3.8430002 -6.4932103 -0.32511997
-3.8930001 -6.4932103 -0.12511998
-3.7930002 -6.6432099 -0.22511998
-4.0929999 -6.8432102 0.024880024
-4.1430001 -6.8432102 0.12488002
-4.0929999 -6.8432102 0.074880026
-4.0929999 -6.7432103 -0.025119977
-4.0929999 -6.8432102 0.17488003
-4.0929999 -6.8432102 0.22488002
-4.0929999 -6.79321 0.22488002
-4.1430001 -6.8432102 0.32488003
-4.0929999 -6.8432102 0.27488002
-4.0929999 -6.8432102 0.32488003
-4.0430002 -6.79321 0.22488002
