# .PCD v0.7 - Point Cloud Data file format
VERSION 0.7
FIELDS x y z
SIZE 4 4 4
TYPE F F F
COUNT 1 1 1
WIDTH 1624
HEIGHT 1
VIEWPOINT 0 0 0 1 0 0 0
POINTS 1624
DATA ascii
9.5450001 1.0712904 -0.04711999
9.3950005 1.2712903 -0.04711999
9.4449997 1.2712903 -0.04711999
9.4449997 1.3212904 0.052880011
9.3450003 1.4212904 -0.34711999
9.3450003 1.4212904 -0.24711999
6.395 1.9212904 -0.34711999
6.7449999 1.8212904 -0.39712
6.9450002 1.8712903 -0.39712
7.2449999 1.9212904 -0.29712
7.2449999 2.0212903 -0.39712
7.4949999 1.8712903 -0.39712
7.4450002 2.0212903 -0.39712
7.895 1.8212904 -0.34711999
7.9450002 2.9212904 0.15288001
7.9450002 2.9212904 0.25288001
7.895 3.1712904 0.10288001
7.8450003 3.1212904 0.25288001
7.9450002 3.0212903 0.20288001
7.9450002 3.0712903 0.20288001
7.895 3.0712903 0.30288002
7.9450002 3.0712903 0.30288002
7.895 3.1712904 0.25288001
7.9450002 3.1212904 0.25288001
7.9450002 3.2212903 0.20288001
7.9450002 2.9212904 0.35288
7.9450002 2.9712903 0.40288001
7.9450002 2.9212904 0.45288002
7.8450003 3.1212904 0.35288
7.9450002 3.1212904 0.35288
7.9450002 3.1712904 0.35288
7.895 3.1212904 0.45288002
6.4450002 3.9712903 -0.14712
6.395 3.9712903 -0.04711999
6.395 3.9212904 0.10288001
6.4450002 3.9212904 0.10288001
6.5450001 3.9712903 0.20288001
6.4949999 3.9712903 0.25288001
6.395 4.0212903 0.052880011
6.4949999 4.0212903 0.052880011
6.5450001 4.0212903 0.10288001
6.395 4.0212903 0.15288001
6.395 4.0212903 0.20288001
6.4450002 4.0212903 0.15288001
6.395 4.0212903 0.30288002
6.5450001 4.0212903 0.20288001
6.5450001 4.0712905 0.20288001
6.4949999 4.0212903 0.30288002
6.5450001 4.0212903 0.30288002
6.5450001 4.0712905 0.30288002
6.5950003 3.9712903 0.0028800089
6.5950003 3.9712903 0.30288002
6.6950002 3.9712903 0.15288001
6.6950002 3.9712903 0.25288001
6.645 4.0212903 0.10288001
6.645 4.0712905 0.052880011
6.6950002 4.0212903 0.052880011
6.6950002 4.0712905 0.052880011
6.7449999 4.0212903 0.10288001
6.645 4.0212903 0.15288001
6.645 4.0212903 0.20288001
6.6950002 4.0712905 0.15288001
6.7449999 4.0212903 0.20288001
6.6950002 4.0212903 0.25288001
6.7449999 4.0212903 0.25288001
6.7950001 3.9712903 -0.04711999
6.7950001 3.9212904 0.10288001
6.7950001 3.9712903 0.25288001
6.7950001 3.9712903 0.30288002
6.8450003 3.9712903 0.30288002
6.7950001 4.0712905 0.052880011
6.895 4.0212903 0.0028800089
6.7950001 4.0712905 0.15288001
6.8450003 4.0712905 0.25288001
6.9450002 4.0212903 0.20288001
6.895 4.0212903 0.30288002
6.895 4.0712905 0.30288002
6.9450002 4.0212903 0.25288001
6.9949999 3.9712903 0.0028800089
6.9949999 3.9712903 0.20288001
7.0950003 3.9712903 0.30288002
7.145 3.9712903 0.30288002
7.0450001 4.0712905 0.15288001
6.9949999 4.0212903 0.30288002
7.145 4.0212903 0.20288001
6.395 3.9712903 0.45288002
6.5450001 3.9712903 0.65288001
6.395 4.0212903 0.35288
6.395 4.0212903 0.40288001
6.4450002 4.0212903 0.35288
6.395 4.0712905 0.50288004
6.5450001 4.0212903 0.35288
6.4949999 4.0712905 0.45288002
6.4450002 4.0212903 0.70288002
6.5450001 4.0712905 0.65288001
6.5450001 4.1712904 0.70288002
6.645 3.9712903 0.45288002
6.7449999 3.9712903 0.40288001
6.6950002 3.9712903 0.45288002
6.6950002 3.9712903 0.50288004
6.5950003 3.9712903 0.55287999
6.645 3.9712903 0.65288001
6.5950003 4.0712905 0.40288001
6.645 4.0212903 0.35288
6.5950003 4.0212903 0.45288002
6.645 4.0712905 0.45288002
6.6950002 4.0712905 0.40288001
6.5950003 4.0712905 0.60288
6.6950002 4.0712905 0.55287999
6.7449999 4.0212903 0.60288
6.7449999 4.0712905 0.55287999
6.7449999 4.0212903 0.70288002
6.4949999 3.9712903 0.75288004
6.5950003 4.0212903 0.75288004
6.7449999 4.1212902 0.80288005
6.645 4.0712905 0.95288002
6.8450003 3.9712903 0.50288004
6.9450002 3.9712903 0.45288002
6.9450002 3.9712903 0.50288004
6.8450003 3.9712903 0.60288
6.7950001 3.9712903 0.65288001
6.7950001 4.0212903 0.40288001
6.9450002 4.0712905 0.40288001
6.895 4.0712905 0.45288002
6.9450002 4.0712905 0.45288002
6.8450003 4.0712905 0.65288001
6.9949999 3.9712903 0.55287999
7.0450001 3.9712903 0.55287999
7.0950003 3.9712903 0.70288002
7.0450001 4.0712905 0.45288002
7.0950003 4.0712905 0.45288002
7.145 4.0212903 0.50288004
7.0450001 4.0212903 0.60288
6.9949999 4.1212902 0.65288001
7.0950003 4.0712905 0.60288
7.0950003 4.0212903 0.70288002
7.145 4.0212903 0.70288002
6.895 3.9712903 0.80288005
6.8450003 4.1212902 0.80288005
6.895 4.0212903 0.80288005
6.895 4.0712905 0.90288001
6.895 4.1212902 0.75288004
6.8450003 4.1712904 0.95288002
6.7950001 4.1212902 1.05288
7.145 3.9712903 0.90288001
7.0450001 4.0212903 0.75288004
7.0950003 4.0712905 0.80288005
7.145 4.0712905 0.80288005
7.0950003 4.1212902 0.75288004
6.9949999 4.0212903 1.00288
7.145 4.0712905 1.05288
7.145 4.1212902 0.95288002
7.2950001 3.6712904 0.25288001
7.5450001 3.5712905 0.25288001
7.2950001 3.9712903 0.052880011
7.2449999 3.9712903 0.20288001
7.1950002 3.9712903 0.25288001
7.2950001 3.8712904 0.25288001
7.2950001 3.9212904 0.20288001
7.1950002 4.0712905 0.20288001
7.1950002 4.0712905 0.25288001
7.2449999 4.0212903 0.25288001
7.2449999 4.0212903 0.30288002
7.2950001 4.0212903 0.20288001
7.3450003 4.0212903 0.20288001
7.9450002 3.5212903 -0.24711999
7.895 3.5712905 0.0028800089
7.9450002 3.4712903 0.30288002
7.895 3.5712905 0.20288001
7.9450002 3.5212903 0.20288001
7.895 3.5212903 0.30288002
7.2950001 3.5712905 0.40288001
7.3450003 3.5212903 0.40288001
7.2449999 3.7212903 0.35288
7.2449999 3.7712903 0.35288
7.2950001 3.6212904 0.40288001
7.3450003 3.6712904 0.35288
7.2950001 3.6712904 0.45288002
7.2950001 3.7212903 0.40288001
7.3450003 3.7712903 0.40288001
7.2950001 3.7712903 0.45288002
7.2950001 3.7712903 0.50288004
7.3450003 3.7712903 0.45288002
7.2950001 3.6212904 0.60288
7.3450003 3.6712904 0.60288
7.4450002 3.6212904 0.35288
7.4949999 3.6212904 0.40288001
7.5450001 3.6212904 0.50288004
7.4450002 3.6212904 0.55287999
7.2449999 3.8212905 0.40288001
7.2950001 3.8212905 0.40288001
7.2950001 3.9712903 0.40288001
7.3450003 3.9712903 0.40288001
7.2950001 3.9712903 0.65288001
7.1950002 4.0212903 0.40288001
7.2449999 4.0712905 0.40288001
7.2449999 4.0212903 0.45288002
7.2449999 4.0212903 0.50288004
7.2950001 4.0712905 0.35288
7.2950001 4.0212903 0.45288002
7.2950001 4.0212903 0.50288004
7.2950001 4.0712905 0.45288002
7.1950002 4.0712905 0.55287999
7.2950001 4.0212903 0.65288001
7.2950001 4.1212902 0.70288002
7.395 3.9212904 0.60288
7.4949999 3.9712903 0.65288001
7.4450002 4.0212903 0.40288001
7.395 4.0212903 0.50288004
7.4450002 4.0712905 0.45288002
7.5450001 4.0712905 0.50288004
7.4450002 4.0712905 0.65288001
7.1950002 4.0712905 0.75288004
7.2449999 4.0712905 0.85288
7.2449999 4.0712905 1.00288
7.5450001 3.9712903 0.75288004
7.395 3.9712903 1.05288
7.4949999 4.0712905 0.90288001
7.5950003 3.5212903 0.35288
7.5950003 3.5712905 0.40288001
7.645 3.5212903 0.35288
7.5950003 3.5712905 0.45288002
7.7449999 3.5212903 0.45288002
7.8450003 3.5712905 0.40288001
7.895 3.4712903 0.40288001
7.9450002 3.5712905 0.45288002
7.645 4.0212903 0.65288001
7.645 4.0712905 0.65288001
7.5950003 4.1212902 0.65288001
7.6950002 4.0712905 0.60288
7.7950001 4.0712905 0.50288004
7.7950001 4.0212903 0.70288002
7.5950003 4.0212903 0.75288004
7.645 4.1212902 0.75288004
7.5950003 4.1212902 0.90288001
7.6950002 4.1212902 0.75288004
7.645 4.0712905 0.95288002
7.5950003 4.0712905 1.05288
7.645 4.1712904 1.05288
7.8450003 4.1212902 0.80288005
6.645 4.1212902 1.1528801
7.1950002 4.1212902 1.25288
8.3450003 1.9212904 -0.39712
8.2950001 2.1212904 -0.39712
8.1450005 2.2712903 -0.39712
8.5450001 2.5712903 -0.39712
8.0450001 2.8712904 -0.34711999
8.0450001 2.8712904 0.10288001
7.9949999 2.8212903 0.20288001
7.9949999 2.8212903 0.30288002
7.9949999 2.9212904 0.20288001
8.0450001 2.9712903 0.30288002
8.1450005 2.8712904 0.25288001
8.1949997 2.9712903 0.20288001
8.2449999 2.9212904 0.15288001
8.2950001 2.9712903 0.15288001
8.0950003 3.0712903 -0.34711999
8.0950003 3.1212904 -0.39712
8.0950003 3.1212904 -0.29712
8.1450005 3.1212904 -0.29712
8.1450005 3.0712903 -0.24711999
8.3450003 3.1212904 -0.34711999
8.3450003 3.1212904 -0.29712
8.2449999 3.1712904 -0.097119994
8.2950001 3.1212904 -0.097119994
7.9949999 3.0712903 0.10288001
8.0450001 3.1212904 0.10288001
8.0950003 3.0712903 -0.04711999
8.0950003 3.0712903 0.052880011
8.0950003 3.1212904 -0.04711999
8.0950003 3.1212904 0.0028800089
7.9949999 3.0212903 0.20288001
7.9949999 3.1212904 0.20288001
8.1450005 3.0712903 0.15288001
8.0950003 3.0712903 0.25288001
8.0950003 3.1212904 0.15288001
8.1450005 3.1212904 0.25288001
8.1949997 3.0712903 0.052880011
8.1949997 3.1212904 -0.04711999
8.2449999 3.1212904 0.052880011
8.2950001 3.0712903 -0.04711999
8.1949997 3.1212904 0.15288001
8.2950001 3.1212904 0.15288001
8.2950001 3.1212904 0.20288001
8.7449999 2.7712903 0.30288002
8.7449999 2.9212904 0.10288001
8.5950003 2.9212904 0.25288001
8.6450005 2.9212904 0.25288001
8.6949997 2.8712904 0.20288001
8.7449999 2.8712904 0.20288001
8.6949997 2.8712904 0.25288001
8.7449999 2.8212903 0.25288001
8.6949997 2.9212904 0.15288001
8.6949997 2.9212904 0.20288001
8.5450001 3.0712903 -0.34711999
8.5450001 3.0712903 -0.14712
8.5950003 3.0712903 -0.29712
8.6949997 3.0712903 -0.097119994
8.3950005 3.0712903 -0.04711999
8.4449997 3.0712903 0.052880011
8.4949999 3.0712903 -0.04711999
8.4949999 3.0712903 0.10288001
8.5450001 3.1212904 0.0028800089
8.4449997 3.0712903 0.15288001
8.3950005 3.1212904 0.20288001
8.4449997 3.1212904 0.15288001
8.4949999 3.0212903 0.15288001
8.4949999 3.0212903 0.20288001
8.5450001 3.0212903 0.20288001
8.5950003 3.0712903 -0.04711999
8.6450005 3.0712903 0.10288001
8.6450005 3.1212904 0.0028800089
8.5950003 3.1212904 0.10288001
8.6949997 3.0212903 0.052880011
8.6949997 3.0712903 0.052880011
8.6949997 3.1212904 0.10288001
8.6450005 3.0712903 0.20288001
8.6949997 3.0712903 0.15288001
8.7449999 3.0212903 0.15288001
8.7449999 3.0212903 0.20288001
7.9949999 2.8712904 0.35288
7.9949999 2.9212904 0.35288
8.0950003 2.9212904 0.45288002
8.2950001 2.9712903 0.35288
7.9949999 3.0212903 0.35288
8.0450001 3.0212903 0.40288001
7.9949999 3.0712903 0.45288002
8.0450001 3.1712904 0.40288001
8.2449999 3.1712904 0.35288
8.1949997 3.1712904 0.45288002
8.1949997 3.0712903 0.55287999
8.2449999 3.2212903 0.50288004
8.2950001 3.3212903 0.35288
8.4949999 2.9712903 0.35288
8.5450001 2.9212904 0.35288
8.7449999 2.7212903 0.35288
8.6450005 2.8212903 0.40288001
8.6450005 2.8712904 0.35288
8.5950003 2.9212904 0.35288
8.6450005 2.9212904 0.40288001
8.6450005 2.9212904 0.50288004
8.6949997 2.8212903 0.35288
8.7449999 2.9712903 0.35288
8.4949999 3.0212903 0.40288001
8.4949999 3.3712904 0.40288001
8.8450003 2.9712903 -0.29712
8.7950001 2.7712903 0.15288001
8.7950001 2.7712903 0.20288001
8.7950001 2.7212903 0.25288001
8.7950001 2.7712903 0.25288001
8.7950001 2.7712903 0.30288002
8.8450003 2.9712903 0.0028800089
8.8950005 2.9712903 0.10288001
8.7950001 2.8212903 0.20288001
8.8450003 2.9212904 0.15288001
8.8450003 2.9712903 0.20288001
8.8450003 3.0712903 -0.39712
8.7950001 3.0712903 -0.34711999
8.8450003 3.0212903 -0.29712
8.7950001 3.0712903 -0.097119994
8.7950001 3.0212903 -0.04711999
8.8450003 3.0212903 -0.04711999
8.8450003 3.0712903 -0.04711999
8.8950005 3.0212903 0.052880011
8.8450003 3.0212903 0.15288001
8.8450003 3.0212903 0.20288001
8.8450003 3.0212903 0.30288002
9.5450001 3.0712903 -0.29712
9.5450001 3.1712904 -0.39712
8.7950001 2.7712903 0.35288
8.8450003 2.7212903 0.35288
8.8450003 2.7212903 0.50288004
8.7950001 2.8212903 0.40288001
8.2950001 3.5712905 -0.14712
7.9949999 3.5212903 0.30288002
7.9949999 3.5712905 0.25288001
8.0950003 3.5212903 0.20288001
8.3450003 3.5212903 0.20288001
8.5450001 3.6212904 -0.29712
8.5950003 3.5712905 -0.14712
8.6450005 3.7212903 -0.34711999
8.3950005 3.5212903 -0.04711999
8.5450001 3.5712905 0.20288001
8.6450005 3.5712905 0.10288001
8.7449999 3.5712905 0.052880011
8.7449999 3.5212903 0.30288002
8.4949999 3.8212905 -0.34711999
8.0950003 3.5212903 0.35288
8.1450005 3.5212903 0.35288
8.0450001 3.6712904 0.35288
8.0950003 3.6212904 0.40288001
8.1450005 3.6212904 0.50288004
8.0950003 3.6712904 0.55287999
8.2449999 3.5212903 0.35288
8.3450003 3.5212903 0.45288002
8.1450005 4.0212903 0.50288004
8.0950003 4.0712905 0.55287999
8.3450003 3.9712903 0.50288004
8.2449999 4.1212902 0.50288004
8.2950001 4.1212902 0.50288004
8.2449999 4.0712905 0.65288001
8.1949997 4.1212902 0.65288001
8.2449999 4.1212902 0.70288002
8.2950001 4.0212903 0.55287999
8.3450003 4.0712905 0.55287999
8.0950003 4.0212903 0.80288005
8.1450005 4.0212903 0.80288005
8.2449999 4.0712905 0.75288004
8.3450003 4.0212903 0.75288004
8.4449997 3.5712905 0.45288002
8.5450001 3.5212903 0.45288002
8.5450001 3.5712905 0.45288002
8.4449997 3.5712905 0.60288
8.4449997 3.6212904 0.40288001
8.3950005 3.6712904 0.45288002
8.4949999 3.6212904 0.35288
8.4949999 3.6712904 0.50288004
8.5450001 3.7712903 0.50288004
8.4949999 3.6212904 0.55287999
8.4949999 3.6712904 0.65288001
8.4949999 3.7212903 0.55287999
8.6450005 3.5212903 0.35288
8.7449999 3.4712903 0.40288001
8.5450001 3.9712903 0.65288001
8.4949999 4.1212902 0.50288004
8.4949999 4.0212903 0.65288001
8.7449999 4.0712905 0.35288
8.7449999 4.0712905 0.50288004
8.7449999 4.0712905 0.70288002
8.6949997 4.1212902 0.55287999
8.4449997 4.0212903 0.75288004
8.4449997 4.1712904 0.80288005
8.4949999 4.0712905 0.80288005
8.4949999 4.1212902 0.85288
8.4449997 4.1212902 1.10288
8.4949999 4.0212903 1.00288
8.6450005 3.9712903 0.85288
8.6450005 4.0212903 0.90288001
8.6949997 4.0712905 0.75288004
8.7449999 4.0212903 0.80288005
8.6949997 4.0212903 0.85288
8.7449999 4.0712905 0.90288001
8.6949997 4.1212902 0.85288
8.5950003 4.0712905 1.00288
8.6450005 4.0212903 1.10288
8.7449999 4.0212903 1.10288
8.7449999 4.1212902 1.00288
8.4949999 4.2712903 0.80288005
8.4949999 4.2212906 0.90288001
8.5450001 4.2212906 1.05288
8.5450001 4.3712902 1.00288
8.5450001 4.4212904 1.10288
8.5450001 4.5712905 0.95288002
8.5950003 4.3212905 1.00288
9.1450005 3.6712904 -0.34711999
9.1949997 3.5712905 -0.44712001
9.3450003 3.5212903 -0.29712
9.2950001 3.7212903 -0.29712
9.4449997 3.4712903 -0.19712
9.3950005 3.6212904 -0.39712
8.7950001 4.1212902 0.50288004
8.7950001 4.0212903 0.70288002
8.8950005 4.0712905 0.60288
8.9949999 4.0712905 0.60288
9.0450001 4.0712905 0.55287999
9.0450001 4.1212902 0.55287999
9.1450005 4.0712905 0.60288
9.0950003 4.0212903 0.70288002
8.7950001 4.0212903 0.75288004
8.8450003 4.0212903 0.80288005
8.8450003 4.0712905 0.80288005
8.9449997 4.0712905 0.90288001
8.8950005 4.1212902 0.80288005
8.7950001 4.0212903 0.95288002
8.9949999 3.9712903 1.05288
9.0450001 4.0212903 0.80288005
9.0450001 4.0212903 0.85288
9.1450005 4.0712905 1.05288
9.3950005 3.4712903 0.40288001
9.4449997 3.7712903 0.35288
9.3950005 3.7212903 0.50288004
9.3450003 4.1212902 0.45288002
9.2950001 4.0712905 0.60288
9.3450003 4.0712905 0.55287999
9.2950001 4.0712905 0.70288002
9.3450003 4.1212902 0.60288
9.4449997 4.0712905 0.40288001
9.4949999 4.0712905 0.35288
9.3950005 4.1212902 0.55287999
9.4949999 4.0212903 0.65288001
9.5450001 4.0712905 0.65288001
9.2449999 3.9712903 0.90288001
9.2449999 3.9712903 0.95288002
9.1949997 4.0712905 0.85288
9.1949997 4.1212902 0.90288001
9.3450003 4.0712905 0.80288005
9.3950005 3.9712903 0.90288001
9.4449997 4.0212903 0.75288004
9.3950005 4.0212903 0.90288001
9.4949999 4.0212903 0.80288005
9.4949999 4.0212903 0.85288
9.4949999 4.0712905 0.85288
9.4949999 4.1212902 0.90288001
9.4449997 4.0212903 1.05288
9.4449997 4.1212902 0.95288002
9.3950005 4.1212902 1.05288
8.5450001 3.9712903 1.1528801
8.5450001 4.0212903 1.20288
8.5450001 4.1212902 1.1528801
8.6949997 4.1212902 1.25288
8.5450001 4.2712903 1.20288
8.5450001 4.2712903 1.4028801
8.5950003 4.2212906 1.1528801
8.5950003 4.3712902 1.1528801
8.9449997 4.0712905 1.1528801
8.8950005 4.0712905 1.25288
8.8450003 4.0712905 1.45288
9.0950003 3.9712903 1.25288
9.0950003 4.1212902 1.20288
9.2449999 3.9712903 1.25288
9.2950001 3.9712903 1.1528801
9.2449999 4.1212902 1.35288
9.3950005 4.0212903 1.20288
9.9449997 -1.0787097 0.0028800089
9.9449997 -0.9787097 0.30288002
9.9449997 -0.92870969 0.25288001
9.9949999 -1.3787097 -0.097119994
9.9949999 -1.2787097 -0.097119994
9.9949999 -1.3287097 -0.04711999
10.045 -1.3287097 0.052880011
9.9949999 -1.2787097 0.052880011
10.045 -1.2787097 0.10288001
10.095 -1.3787097 0.10288001
10.095 -1.3287097 0.10288001
10.045 -1.2287097 0.15288001
10.095 -1.3287097 0.15288001
10.095 -1.3287097 0.20288001
10.145 -1.3787097 0.20288001
10.145 -1.3287097 0.20288001
10.095 -1.3787097 0.30288002
10.145 -1.3787097 0.30288002
10.095 -1.2287097 0.20288001
10.095 -1.2287097 0.25288001
10.145 -1.2787097 0.30288002
9.9949999 -1.1287097 -0.04711999
10.045 -1.1287097 0.0028800089
9.9949999 -1.1287097 0.052880011
10.045 -1.1287097 0.10288001
10.145 -1.0287097 0.052880011
10.045 -1.1287097 0.20288001
9.9949999 -1.1287097 0.25288001
10.045 -1.1287097 0.30288002
10.095 -1.1787097 0.15288001
10.095 -1.1787097 0.25288001
10.145 -1.1787097 0.30288002
10.145 -1.1287097 0.25288001
10.095 -1.0787097 0.15288001
10.095 -1.0787097 0.30288002
10.145 -1.0787097 0.30288002
10.195 -1.0287097 0.0028800089
9.9949999 -0.82870966 0.15288001
10.045 -0.82870966 0.15288001
9.9949999 -0.87870967 0.30288002
10.095 -0.9787097 0.15288001
10.095 -0.9787097 0.30288002
10.145 -0.92870969 0.25288001
10.095 -0.82870966 0.15288001
10.145 -0.82870966 0.15288001
10.095 -0.87870967 0.25288001
10.145 -0.82870966 0.30288002
10.045 -0.67870969 -0.04711999
10.045 -0.67870969 0.0028800089
10.045 -0.62870967 0.10288001
10.095 -0.77870971 0.10288001
10.095 -0.7287097 0.10288001
10.095 -0.67870969 0.10288001
10.095 -0.62870967 0.052880011
10.045 -0.77870971 0.30288002
9.9949999 -0.62870967 0.30288002
10.045 -0.67870969 0.25288001
10.045 -0.62870967 0.30288002
10.095 -0.77870971 0.15288001
10.145 -0.77870971 0.20288001
10.145 -0.7287097 0.20288001
10.095 -0.62870967 0.15288001
10.145 -0.67870969 0.15288001
10.145 -0.67870969 0.20288001
10.145 -0.62870967 0.20288001
10.145 -0.67870969 0.25288001
10.145 -0.67870969 0.30288002
9.9449997 -1.3787097 0.40288001
9.9449997 -1.3287097 0.35288
9.9449997 -1.3287097 0.40288001
9.9449997 -1.2787097 0.40288001
9.8950005 -1.2287097 0.45288002
9.8950005 -1.2287097 0.50288004
9.9449997 -1.2787097 0.45288002
9.9449997 -1.2287097 0.50288004
9.8950005 -1.1787097 0.40288001
9.9449997 -1.1787097 0.35288
9.9449997 -1.1787097 0.40288001
9.9449997 -1.1287097 0.40288001
9.9449997 -1.1787097 0.45288002
9.9449997 -1.0787097 0.40288001
9.9449997 -1.0287097 0.40288001
9.8950005 -1.0787097 0.45288002
9.9449997 -1.0287097 0.45288002
9.9449997 -0.9787097 0.45288002
9.9449997 -0.87870967 0.40288001
9.9449997 -0.67870969 0.40288001
9.9449997 -0.62870967 0.40288001
9.9949999 -1.3287097 0.35288
9.9949999 -1.2787097 0.35288
9.9949999 -1.0787097 0.35288
9.9949999 -1.0787097 0.50288004
10.095 -1.0287097 0.50288004
10.045 -0.9787097 0.45288002
10.045 -0.9787097 0.50288004
9.9949999 -0.87870967 0.40288001
9.9949999 -0.82870966 0.35288
9.9949999 -0.82870966 0.40288001
10.045 -0.87870967 0.40288001
9.9949999 -0.82870966 0.45288002
10.095 -0.9787097 0.45288002
10.045 -0.7287097 0.40288001
9.9949999 -0.7287097 0.45288002
10.045 -0.77870971 0.50288004
9.9949999 -0.62870967 0.40288001
10.045 -0.67870969 0.40288001
10.245 -0.9787097 0.55287999
9.7449999 -0.37870967 -0.097119994
9.7449999 -0.32870969 -0.14712
9.7449999 -0.32870969 -0.04711999
9.7449999 -0.32870969 0.0028800089
9.7449999 -0.27870968 0.10288001
9.6949997 -0.17870969 -0.097119994
9.7950001 -0.028709678 -0.097119994
9.8950005 0.071290322 -0.29712
9.8450003 0.021290323 -0.19712
9.8450003 0.021290323 -0.14712
9.7950001 0.12129033 -0.19712
9.8950005 0.12129033 -0.097119994
9.6949997 -0.17870969 -0.04711999
9.7950001 -0.17870969 0.0028800089
9.7950001 -0.028709678 0.0028800089
9.8950005 -0.17870969 0.052880011
9.9449997 -0.12870967 0.10288001
9.9449997 -0.12870967 0.30288002
9.8950005 -0.028709678 0.25288001
9.7950001 0.021290323 -0.04711999
9.8450003 0.021290323 -0.04711999
9.8950005 0.071290322 -0.04711999
9.8950005 0.071290322 0.0028800089
9.8950005 0.021290323 0.052880011
9.9449997 0.071290322 0.10288001
9.9449997 0.021290323 0.30288002
10.045 -0.57870966 0.10288001
10.045 -0.52870971 0.10288001
10.095 -0.57870966 0.10288001
10.095 -0.52870971 0.052880011
10.095 -0.42870969 0.10288001
10.045 -0.57870966 0.15288001
9.9949999 -0.4787097 0.30288002
9.9949999 -0.42870969 0.30288002
10.045 -0.4787097 0.25288001
10.095 -0.52870971 0.20288001
10.095 -0.52870971 0.25288001
10.145 -0.52870971 0.30288002
10.145 -0.4787097 0.15288001
10.145 -0.4787097 0.20288001
10.145 -0.42870969 0.15288001
10.095 -0.42870969 0.30288002
9.9949999 -0.27870968 0.052880011
9.9949999 -0.22870968 0.10288001
10.095 -0.37870967 -0.04711999
10.095 -0.32870969 0.10288001
10.095 -0.27870968 0.052880011
10.095 -0.27870968 0.10288001
10.045 -0.37870967 0.30288002
9.9949999 -0.27870968 0.30288002
9.9949999 -0.22870968 0.25288001
10.095 -0.32870969 0.15288001
10.095 -0.22870968 0.15288001
10.095 -0.22870968 0.20288001
10.145 -0.22870968 0.20288001
10.095 -0.27870968 0.30288002
9.9949999 0.17129032 -0.097119994
9.9949999 -0.17870969 0.0028800089
9.9949999 -0.12870967 0.10288001
10.095 -0.17870969 0.10288001
10.045 -0.12870967 0.15288001
10.045 -0.12870967 0.20288001
10.045 -0.078709677 0.20288001
10.045 -0.028709678 0.15288001
10.095 -0.12870967 0.20288001
10.145 -0.17870969 0.30288002
9.9949999 0.021290323 0.10288001
10.045 0.021290323 0.15288001
10.045 0.021290323 0.30288002
9.9949999 0.12129033 0.20288001
10.045 0.12129033 0.20288001
10.045 0.17129032 0.20288001
10.145 0.021290323 0.25288001
10.095 0.17129032 0.20288001
9.9449997 -0.52870971 0.40288001
9.9449997 -0.57870966 0.45288002
9.9449997 -0.42870969 0.40288001
9.9449997 -0.42870969 0.45288002
9.9449997 -0.32870969 0.40288001
9.9449997 -0.32870969 0.45288002
9.9449997 -0.22870968 0.40288001
9.9449997 -0.17870969 0.40288001
9.8950005 -0.028709678 0.40288001
9.9449997 0.021290323 0.40288001
9.9449997 0.071290322 0.45288002
9.9449997 0.17129032 0.40288001
9.9949999 -0.52870971 0.40288001
9.9949999 -0.57870966 0.45288002
9.9949999 -0.37870967 0.40288001
10.045 -0.32870969 0.45288002
10.045 -0.22870968 0.50288004
10.195 -0.22870968 0.50288004
10.045 -0.17870969 0.50288004
10.045 -0.12870967 0.45288002
10.045 -0.12870967 0.50288004
10.045 -0.078709677 0.40288001
9.9949999 -0.028709678 0.45288002
10.045 -0.078709677 0.50288004
10.145 -0.12870967 0.80288005
10.145 0.021290323 0.80288005
10.545 -0.87870967 0.052880011
10.895 -0.82870966 0.20288001
10.895 -0.82870966 0.30288002
10.945 -0.77870971 0.052880011
10.995 -0.82870966 0.25288001
9.9449997 0.22129032 -0.19712
9.9449997 0.22129032 0.20288001
9.9449997 0.72129035 -0.097119994
9.8450003 0.82129031 -0.34711999
9.9449997 0.87129033 -0.19712
9.8950005 0.82129031 -0.14712
9.8950005 0.87129033 -0.097119994
9.9449997 0.87129033 -0.097119994
9.9449997 0.92129034 -0.19712
9.9449997 0.92129034 -0.14712
9.7449999 0.92129034 -0.04711999
9.9449997 0.72129035 -0.04711999
9.9449997 0.77129036 0.052880011
9.8950005 0.77129036 0.20288001
9.8950005 0.77129036 0.25288001
9.9449997 0.77129036 0.30288002
9.9449997 0.82129031 0.0028800089
9.9449997 0.87129033 0.0028800089
9.9449997 0.97129035 0.0028800089
9.8450003 0.97129035 0.30288002
9.8950005 0.87129033 0.20288001
9.9449997 0.87129033 0.20288001
9.8950005 0.97129035 0.20288001
9.9949999 0.22129032 -0.04711999
10.045 0.27129033 -0.04711999
9.9949999 0.22129032 0.052880011
10.095 0.22129032 0.10288001
10.145 0.32129031 0.0028800089
10.045 0.22129032 0.20288001
9.9949999 0.27129033 0.25288001
9.9949999 0.27129033 0.30288002
10.095 0.22129032 0.15288001
10.095 0.27129033 0.15288001
10.145 0.22129032 0.25288001
10.145 0.27129033 0.30288002
10.195 0.27129033 -0.04711999
10.195 0.27129033 0.0028800089
10.195 0.27129033 0.10288001
10.245 0.27129033 0.20288001
9.9949999 0.87129033 -0.097119994
9.9949999 0.97129035 -0.097119994
10.195 0.72129035 -0.19712
9.9949999 0.72129035 0.10288001
9.9949999 0.77129036 0.10288001
10.045 0.77129036 0.10288001
10.045 0.77129036 0.20288001
9.9949999 0.77129036 0.30288002
10.045 0.77129036 0.25288001
9.9949999 0.82129031 0.0028800089
10.045 0.82129031 0.0028800089
9.9949999 0.97129035 -0.04711999
9.9949999 0.97129035 0.0028800089
9.9949999 0.92129034 0.10288001
10.045 0.92129034 0.052880011
10.045 0.97129035 0.10288001
10.145 0.82129031 0.10288001
10.145 0.97129035 0.10288001
10.045 0.82129031 0.15288001
10.045 0.87129033 0.15288001
10.045 0.92129034 0.15288001
9.9949999 0.97129035 0.25288001
10.045 0.92129034 0.25288001
10.145 0.92129034 0.25288001
10.195 0.72129035 0.20288001
10.245 0.72129035 0.25288001
10.295 0.67129034 0.15288001
10.295 0.72129035 0.20288001
10.195 0.97129035 0.15288001
9.8950005 0.22129032 0.40288001
9.8950005 0.27129033 0.45288002
9.8950005 0.32129031 0.35288
9.8950005 0.67129034 0.40288001
9.9449997 0.67129034 0.45288002
9.9449997 0.72129035 0.40288001
9.8950005 0.77129036 0.45288002
9.8950005 0.77129036 0.50288004
9.8950005 0.77129036 0.60288
9.9449997 0.77129036 0.65288001
9.8450003 0.92129034 0.40288001
9.8950005 0.87129033 0.40288001
9.8950005 0.82129031 0.45288002
9.8950005 0.87129033 0.50288004
9.9449997 0.82129031 0.45288002
9.9449997 0.87129033 0.45288002
9.8950005 0.92129034 0.40288001
9.8950005 0.92129034 0.45288002
9.9449997 0.92129034 0.45288002
9.9949999 0.22129032 0.45288002
9.9949999 0.72129035 0.45288002
9.9449997 1.0712904 -0.14712
9.9449997 1.1212903 -0.24711999
9.9449997 1.1212903 -0.19712
9.9449997 1.1212903 -0.097119994
9.9449997 1.2712903 -0.097119994
9.9449997 1.3712903 -0.24711999
9.9449997 1.3712903 -0.097119994
9.5950003 1.3212904 0.0028800089
9.9449997 1.0712904 0.0028800089
9.9449997 1.1712904 -0.04711999
9.9449997 1.0712904 0.20288001
9.8950005 1.0212903 0.25288001
9.8950005 1.1212903 0.20288001
9.8950005 1.1712904 0.25288001
9.8950005 1.1712904 0.30288002
9.9449997 1.2712903 0.0028800089
9.9449997 1.3712903 -0.04711999
9.8950005 1.2212903 0.20288001
9.8950005 1.3712903 0.20288001
9.9449997 1.3212904 0.15288001
9.9449997 1.3212904 0.20288001
9.8950005 1.3712903 0.30288002
9.9449997 1.5212903 -0.19712
9.8950005 1.7712903 -0.34711999
9.9449997 1.7212903 -0.29712
9.8950005 1.4712903 0.20288001
9.8950005 1.5712904 0.15288001
9.8950005 1.5712904 0.20288001
9.9449997 1.5212903 0.15288001
9.9449997 1.5712904 0.25288001
9.9449997 1.6212903 0.15288001
9.9949999 1.0212903 -0.14712
9.9949999 1.0212903 -0.097119994
9.9949999 1.0712904 -0.097119994
9.9949999 1.1212903 -0.14712
9.9949999 1.2212903 -0.097119994
9.9949999 1.2712903 -0.097119994
9.9949999 1.3212904 -0.097119994
9.9949999 1.3712903 -0.14712
9.9949999 1.3712903 -0.097119994
10.045 1.0212903 0.0028800089
9.9949999 1.0212903 0.052880011
9.9949999 1.0712904 0.10288001
10.045 1.0212903 0.052880011
9.9949999 1.1712904 0.0028800089
10.045 1.1212903 0.0028800089
9.9949999 1.1212903 0.052880011
10.045 1.1712904 0.10288001
9.9949999 1.0212903 0.15288001
10.045 1.0712904 0.15288001
9.9949999 1.0712904 0.30288002
10.045 1.0712904 0.25288001
10.095 1.0212903 0.20288001
10.095 1.0712904 0.25288001
10.095 1.1212903 0.15288001
10.095 1.1712904 0.25288001
9.9949999 1.2212903 0.0028800089
10.045 1.2212903 0.0028800089
10.045 1.2712903 0.0028800089
9.9949999 1.2712903 0.10288001
10.045 1.2212903 0.10288001
10.045 1.2712903 0.052880011
9.9949999 1.3212904 0.10288001
10.045 1.3212904 0.052880011
10.045 1.3712903 0.10288001
9.9949999 1.2712903 0.15288001
10.045 1.2212903 0.15288001
10.045 1.2712903 0.15288001
9.9949999 1.2212903 0.25288001
10.045 1.2212903 0.25288001
10.045 1.2712903 0.25288001
10.045 1.3212904 0.15288001
10.045 1.3212904 0.20288001
9.9949999 1.3712903 0.30288002
10.045 1.3212904 0.25288001
10.095 1.2212903 0.20288001
10.095 1.2712903 0.15288001
10.095 1.3712903 0.25288001
9.9949999 1.4712903 -0.097119994
9.9949999 1.5212903 -0.097119994
9.9949999 1.5712904 -0.097119994
10.045 1.5212903 -0.097119994
9.9949999 1.6712904 -0.39712
10.045 1.6712904 -0.39712
9.9949999 1.6212903 -0.24711999
9.9949999 1.6212903 -0.14712
9.9949999 1.6712904 -0.14712
9.9949999 1.6712904 -0.097119994
10.045 1.6212903 -0.097119994
10.045 1.6712904 -0.097119994
9.9949999 1.7212903 -0.24711999
9.9949999 1.7212903 -0.097119994
9.9949999 1.7712903 -0.097119994
10.045 1.7712903 -0.097119994
10.095 1.7712903 -0.097119994
9.9949999 1.4212904 0.0028800089
9.9949999 1.4712903 0.0028800089
10.045 1.4712903 0.0028800089
10.045 1.4212904 0.10288001
9.9949999 1.5212903 0.0028800089
9.9949999 1.5712904 -0.04711999
10.045 1.5212903 0.0028800089
9.9949999 1.5212903 0.052880011
9.9949999 1.5212903 0.10288001
10.045 1.5712904 0.10288001
10.095 1.4712903 0.052880011
10.095 1.4712903 0.10288001
10.095 1.5712904 0.10288001
10.045 1.4212904 0.15288001
10.045 1.4212904 0.25288001
10.045 1.4712903 0.25288001
10.045 1.5212903 0.15288001
10.045 1.5212903 0.25288001
10.045 1.5712904 0.25288001
10.095 1.4712903 0.15288001
10.095 1.4712903 0.20288001
10.095 1.4212904 0.25288001
10.095 1.5212903 0.15288001
10.095 1.5212903 0.20288001
9.9949999 1.6712904 -0.04711999
10.045 1.6712904 -0.04711999
10.045 1.6712904 0.10288001
10.045 1.7212903 0.0028800089
10.045 1.7712903 0.0028800089
10.045 1.7212903 0.10288001
10.095 1.6712904 0.10288001
10.145 1.6712904 0.10288001
10.095 1.7212903 0.0028800089
10.145 1.7212903 0.0028800089
10.145 1.7212903 0.052880011
10.045 1.6212903 0.15288001
10.045 1.6712904 0.30288002
9.9949999 1.7212903 0.20288001
9.9949999 1.7712903 0.15288001
10.045 1.7712903 0.25288001
10.095 1.6712904 0.25288001
10.145 1.6212903 0.25288001
10.095 1.7212903 0.15288001
10.095 1.7212903 0.20288001
10.195 1.7212903 0.15288001
10.245 1.7712903 0.20288001
9.8450003 1.0212903 0.40288001
9.8950005 1.0212903 0.35288
9.8950005 1.0712904 0.40288001
9.9449997 1.0712904 0.45288002
9.8950005 1.1712904 0.40288001
9.9449997 1.1212903 0.45288002
9.9449997 1.1712904 0.45288002
9.8450003 1.2212903 0.40288001
9.8950005 1.2712903 0.40288001
9.9449997 1.2712903 0.35288
9.9449997 1.2712903 0.50288004
9.8950005 1.3212904 0.40288001
9.9449997 1.3212904 0.40288001
9.9449997 1.3212904 0.45288002
9.8950005 1.4212904 0.35288
9.8950005 1.4212904 0.40288001
9.9449997 1.4712903 0.40288001
9.8950005 1.5712904 0.40288001
9.8950005 1.6212903 0.40288001
9.9449997 1.6212903 0.40288001
9.9449997 1.6712904 0.35288
10.045 1.1212903 0.35288
10.045 1.1712904 0.55287999
9.9949999 1.2712903 0.50288004
9.9949999 1.3212904 0.40288001
9.9949999 1.2212903 0.55287999
9.9949999 1.4212904 0.40288001
10.045 1.4212904 0.50288004
10.045 1.4712903 0.50288004
10.045 1.5212903 0.50288004
10.045 1.5712904 0.45288002
10.095 1.4712903 0.45288002
10.045 1.5212903 0.55287999
9.9949999 1.6712904 0.40288001
10.045 1.6212903 0.45288002
9.9949999 1.7712903 0.40288001
10.045 1.7212903 0.40288001
10.095 1.6712904 0.40288001
10.395 0.77129036 -0.29712
10.495 0.67129034 0.20288001
10.495 0.87129033 0.0028800089
10.495 0.82129031 0.25288001
10.645 0.87129033 0.10288001
10.645 0.87129033 0.15288001
11.145 0.87129033 1.6528801
11.195 -1.0287097 0.15288001
11.545 -0.82870966 -0.14712
11.545 -0.77870971 -0.14712
11.495 -0.9787097 0.15288001
11.495 -0.92870969 0.20288001
11.545 -0.92870969 0.20288001
11.495 -0.92870969 0.25288001
11.545 -0.92870969 0.25288001
11.495 -0.87870967 0.15288001
11.495 -0.82870966 0.15288001
11.495 -0.87870967 0.25288001
11.495 -0.87870967 0.30288002
11.495 -0.77870971 0.10288001
11.495 -0.77870971 0.25288001
11.895 -1.3787097 -0.34711999
11.795 -1.2287097 -0.19712
11.495 -0.92870969 0.65288001
11.495 -0.82870966 0.55287999
11.545 -0.82870966 0.65288001
11.545 -0.77870971 0.55287999
11.495 -0.67870969 0.60288
11.545 -0.67870969 0.60288
11.595 -1.2787097 0.60288
11.595 -1.2287097 0.65288001
11.595 -1.1787097 0.60288
11.945 -1.0287097 0.60288
11.845 -1.3287097 0.80288005
11.945 -1.1287097 0.75288004
11.595 -0.77870971 0.60288
11.595 -0.62870967 0.65288001
11.745 -0.77870971 0.65288001
11.945 -0.9787097 0.60288
11.845 -0.7287097 0.65288001
11.545 -0.37870967 -0.19712
11.545 -0.57870966 0.55287999
11.545 -0.52870971 0.55287999
11.545 -0.42870969 0.60288
11.245 -0.22870968 0.90288001
11.245 -0.12870967 0.50288004
11.245 -0.17870969 0.55287999
11.245 -0.078709677 0.60288
11.345 -0.17870969 0.60288
11.345 -0.12870967 0.90288001
11.295 -0.17870969 0.95288002
11.345 -0.12870967 1.10288
11.295 -0.078709677 0.95288002
11.595 -0.42870969 0.60288
11.695 -0.4787097 0.55287999
11.695 -0.4787097 0.60288
11.595 -0.32870969 0.55287999
11.795 -0.52870971 0.65288001
11.895 -0.4787097 0.65288001
11.795 -0.37870967 0.65288001
11.895 -0.27870968 0.60288
11.945 -0.52870971 0.80288005
11.945 -0.17870969 0.60288
11.945 -0.17870969 0.65288001
11.645 -0.028709678 0.85288
11.645 -0.028709678 0.95288002
11.645 0.021290323 0.95288002
11.695 0.071290322 0.95288002
11.895 -0.17870969 0.75288004
11.945 -0.17870969 1.00288
11.995 -1.2787097 0.70288002
11.995 -1.1787097 0.65288001
12.045 -1.1787097 0.65288001
11.995 -1.0787097 0.60288
12.045 -1.0787097 0.70288002
12.045 -1.2287097 0.80288005
12.145 -1.3287097 0.85288
12.095 -1.2287097 0.85288
12.145 -1.2787097 0.90288001
12.145 -1.2287097 0.90288001
12.145 -1.2787097 1.05288
12.045 -1.1287097 0.80288005
11.995 -1.0287097 0.80288005
12.045 -1.0287097 0.90288001
12.145 -1.1287097 0.85288
12.045 -1.0787097 1.00288
12.045 -1.0287097 1.00288
12.145 -1.1787097 1.00288
12.145 -1.0787097 1.10288
12.195 -1.3287097 1.00288
12.195 -1.3287097 1.05288
12.195 -1.3287097 1.10288
12.195 -1.2787097 1.05288
12.195 -1.2287097 1.05288
12.195 -1.1787097 1.05288
12.045 -0.92870969 0.65288001
12.045 -0.82870966 0.70288002
11.995 -0.77870971 0.70288002
12.045 -0.62870967 0.70288002
11.995 -0.9787097 0.80288005
11.995 -0.9787097 0.90288001
12.045 -0.9787097 0.85288
12.045 -0.92870969 0.85288
11.995 -0.82870966 0.80288005
11.995 -0.92870969 1.00288
12.045 -0.9787097 1.05288
11.995 -0.87870967 1.00288
12.045 -0.7287097 0.80288005
11.995 -0.77870971 0.90288001
12.045 -0.77870971 0.85288
12.045 -0.77870971 0.90288001
11.995 -0.67870969 0.90288001
12.045 -0.67870969 0.85288
11.995 -0.77870971 1.00288
12.045 -0.77870971 1.00288
12.045 -0.77870971 1.05288
12.045 -0.7287097 1.05288
11.995 -0.67870969 1.00288
11.995 -0.62870967 1.00288
12.045 -0.67870969 1.05288
11.995 -0.42870969 0.60288
11.995 -0.4787097 0.70288002
11.995 -0.37870967 0.70288002
12.045 -0.37870967 0.70288002
12.045 -0.22870968 0.65288001
11.995 -0.57870966 0.85288
11.995 -0.52870971 0.90288001
11.995 -0.42870969 0.75288004
12.045 -0.4787097 0.80288005
12.045 -0.4787097 0.85288
12.045 -0.4787097 0.90288001
11.995 -0.57870966 1.00288
11.995 -0.52870971 0.95288002
11.995 -0.52870971 1.00288
12.045 -0.52870971 1.05288
11.995 -0.42870969 1.00288
12.045 -0.4787097 1.00288
12.045 -0.42870969 1.00288
11.995 -0.32870969 0.85288
11.995 -0.27870968 0.80288005
11.995 -0.22870968 0.80288005
11.995 -0.22870968 0.85288
12.045 -0.22870968 0.90288001
12.045 -0.37870967 1.00288
11.995 -0.27870968 0.95288002
12.045 -0.27870968 0.95288002
12.045 -0.22870968 1.05288
11.995 -0.17870969 0.70288002
11.995 -0.17870969 0.95288002
12.045 -0.17870969 1.00288
11.495 -0.22870968 1.35288
11.295 -0.12870967 1.30288
11.295 -0.078709677 1.20288
11.245 -0.12870967 1.45288
11.245 -0.028709678 1.35288
11.295 -0.028709678 1.35288
11.345 -0.078709677 1.4028801
11.245 0.17129032 1.20288
11.245 0.12129033 1.25288
11.295 0.021290323 1.30288
11.245 0.17129032 1.35288
11.295 0.021290323 1.4028801
11.395 -0.078709677 1.20288
11.545 -0.078709677 1.30288
11.945 -0.22870968 1.1528801
11.745 0.021290323 1.1528801
11.745 0.17129032 1.1528801
11.895 0.071290322 1.1528801
11.945 -0.17870969 1.75288
11.945 0.17129032 1.75288
12.145 -1.3787097 1.20288
12.145 -1.2787097 1.20288
12.145 -1.2287097 1.20288
12.145 -1.2287097 1.30288
12.145 -1.3787097 1.4028801
12.145 -1.3287097 1.35288
12.145 -1.3287097 1.45288
12.145 -1.2787097 1.50288
11.995 -1.1287097 1.25288
11.995 -1.0287097 1.20288
12.045 -1.0787097 1.30288
12.145 -1.1787097 1.20288
12.045 -1.1287097 1.45288
12.045 -1.0287097 1.4028801
12.145 -1.1287097 1.4028801
12.145 -1.0787097 1.35288
12.095 -1.0287097 1.50288
12.145 -1.0787097 1.50288
12.195 -1.2787097 1.25288
12.195 -1.3787097 1.35288
12.195 -1.3787097 1.50288
12.195 -1.2787097 1.50288
12.145 -1.3287097 1.70288
12.145 -1.2787097 1.55288
12.045 -1.2287097 1.80288
11.995 -1.0287097 1.70288
12.045 -1.0287097 1.9028801
12.195 -1.3787097 1.9028801
12.195 -1.2787097 1.80288
11.995 -0.92870969 1.20288
12.045 -0.92870969 1.20288
11.995 -0.92870969 1.25288
12.045 -0.82870966 1.20288
12.045 -0.82870966 1.30288
11.995 -0.9787097 1.45288
11.995 -0.92870969 1.45288
11.995 -0.92870969 1.50288
12.045 -0.82870966 1.4028801
12.045 -0.82870966 1.45288
12.045 -0.82870966 1.50288
11.995 -0.77870971 1.20288
12.045 -0.7287097 1.20288
11.995 -0.7287097 1.35288
11.995 -0.7287097 1.4028801
12.045 -0.77870971 1.35288
12.045 -0.77870971 1.45288
11.995 -0.62870967 1.45288
11.995 -0.9787097 1.75288
11.995 -0.87870967 1.80288
11.995 -0.67870969 1.75288
12.045 -0.62870967 1.85288
11.995 -0.57870966 1.20288
11.995 -0.57870966 1.25288
11.995 -0.52870971 1.30288
12.045 -0.52870971 1.30288
11.995 -0.4787097 1.20288
12.045 -0.4787097 1.20288
12.045 -0.57870966 1.4028801
11.995 -0.57870966 1.50288
12.045 -0.52870971 1.50288
11.995 -0.42870969 1.35288
12.045 -0.4787097 1.45288
11.995 -0.37870967 1.20288
11.995 -0.27870968 1.20288
11.995 -0.27870968 1.25288
11.995 -0.27870968 1.30288
11.995 -0.22870968 1.30288
12.045 -0.37870967 1.50288
12.045 -0.32870969 1.45288
11.995 -0.27870968 1.4028801
12.045 -0.27870968 1.50288
11.995 -0.52870971 1.75288
11.995 -0.32870969 1.75288
12.045 -0.27870968 1.85288
11.995 -0.12870967 1.20288
11.995 -0.028709678 1.1528801
12.045 -0.17870969 1.45288
11.995 0.12129033 1.50288
11.995 -0.028709678 1.75288
12.045 0.071290322 1.85288
11.395 0.5212903 -0.19712
11.395 0.57129031 -0.19712
11.395 0.5212903 -0.14712
11.395 0.57129031 -0.097119994
11.345 0.5212903 0.20288001
11.295 0.5212903 0.25288001
11.345 0.57129031 0.25288001
11.445 0.47129032 0.052880011
11.395 0.57129031 -0.04711999
11.395 0.57129031 0.0028800089
11.495 0.57129031 0.15288001
11.295 0.62129033 -0.39712
11.345 0.77129036 -0.34711999
11.345 0.67129034 -0.24711999
11.345 0.72129035 -0.19712
11.345 0.82129031 -0.29712
11.395 0.67129034 -0.14712
11.395 0.77129036 -0.14712
11.445 0.72129035 -0.097119994
11.445 0.77129036 -0.097119994
11.495 0.77129036 -0.097119994
11.445 0.92129034 -0.24711999
11.495 0.82129031 -0.19712
11.495 0.92129034 -0.14712
11.495 0.97129035 -0.097119994
11.345 0.62129033 0.15288001
11.345 0.62129033 0.25288001
11.395 0.67129034 0.0028800089
11.395 0.67129034 0.052880011
11.445 0.62129033 0.10288001
11.445 0.67129034 0.052880011
11.545 0.72129035 0.10288001
11.395 0.67129034 0.15288001
11.395 0.62129033 0.30288002
11.395 0.67129034 0.25288001
11.445 0.72129035 0.20288001
11.445 0.77129036 0.25288001
11.445 0.77129036 0.30288002
11.545 0.77129036 0.20288001
11.495 0.87129033 -0.04711999
11.545 0.87129033 0.0028800089
11.495 0.97129035 0.0028800089
11.545 0.92129034 -0.04711999
11.495 0.92129034 0.052880011
11.395 0.87129033 0.30288002
11.445 0.92129034 0.25288001
11.545 0.82129031 0.15288001
11.545 0.87129033 0.15288001
11.495 0.82129031 0.25288001
11.495 0.87129033 0.30288002
11.495 0.92129034 0.20288001
11.545 0.97129035 0.15288001
11.545 0.92129034 0.25288001
11.595 0.77129036 0.10288001
11.745 0.77129036 0.15288001
11.595 0.97129035 0.10288001
11.645 0.87129033 0.15288001
11.595 0.92129034 0.25288001
11.245 0.37129033 0.50288004
11.295 0.32129031 0.55287999
11.345 0.32129031 0.60288
11.345 0.37129033 0.55287999
11.295 0.42129034 0.45288002
11.245 0.42129034 0.70288002
11.295 0.5212903 0.90288001
11.295 0.57129031 0.95288002
11.545 0.27129033 0.95288002
11.245 0.77129036 0.60288
11.245 0.72129035 0.65288001
11.295 0.67129034 0.60288
11.295 0.72129035 0.55287999
11.295 0.77129036 0.55287999
11.345 0.97129035 0.40288001
11.295 0.92129034 0.50288004
11.245 0.82129031 0.60288
11.345 0.87129033 0.55287999
11.295 0.92129034 0.60288
11.295 0.97129035 0.55287999
11.445 0.67129034 0.35288
11.495 0.77129036 0.45288002
11.395 0.92129034 0.50288004
11.495 0.82129031 0.35288
11.495 0.87129033 0.45288002
11.495 0.97129035 0.45288002
11.245 0.62129033 0.75288004
11.245 0.72129035 0.75288004
11.245 0.77129036 0.85288
11.295 0.62129033 0.90288001
11.295 0.67129034 0.90288001
11.295 0.72129035 0.80288005
11.245 0.62129033 0.95288002
11.345 0.77129036 0.95288002
11.245 0.87129033 0.75288004
11.245 0.92129034 0.75288004
11.295 0.87129033 0.75288004
11.295 0.82129031 0.90288001
11.345 0.82129031 0.90288001
11.295 0.92129034 0.75288004
11.295 0.97129035 0.80288005
11.295 0.92129034 0.85288
11.295 0.92129034 0.90288001
11.245 0.92129034 0.95288002
11.345 0.87129033 1.10288
11.295 0.97129035 1.05288
11.395 0.87129033 0.90288001
11.695 0.22129032 0.90288001
11.745 0.27129033 0.85288
11.645 0.37129033 1.10288
11.695 0.22129032 1.00288
11.745 0.32129031 0.95288002
11.745 0.37129033 0.95288002
11.645 0.72129035 0.45288002
11.745 0.87129033 0.55287999
11.945 0.82129031 0.90288001
11.345 1.0712904 -0.39712
11.295 1.3212904 -0.34711999
11.245 1.2712903 -0.24711999
11.545 1.0712904 -0.29712
11.495 1.1212903 -0.34711999
11.445 1.1712904 -0.19712
11.495 1.0212903 -0.097119994
11.495 1.0712904 -0.097119994
11.495 1.1712904 -0.24711999
11.495 1.0712904 0.0028800089
11.495 1.0212903 0.10288001
11.345 1.4212904 -0.29712
11.395 1.5212903 -0.29712
11.745 1.4212904 -0.34711999
11.295 1.0212903 0.35288
11.295 1.0712904 0.50288004
11.295 1.1212903 0.45288002
11.245 1.0212903 0.60288
11.245 1.0712904 0.60288
11.245 1.0212903 0.65288001
11.245 1.1712904 0.60288
11.295 1.0712904 0.70288002
11.195 1.2712903 0.60288
11.245 1.2712903 0.60288
11.245 1.2712903 0.65288001
11.295 1.2212903 0.55287999
11.245 1.0712904 0.75288004
11.245 1.0212903 0.85288
11.245 1.0212903 0.90288001
11.245 1.1212903 0.75288004
11.245 1.1212903 0.90288001
11.295 1.0212903 0.90288001
11.295 1.1712904 0.90288001
11.345 1.1212903 0.85288
11.295 1.0712904 0.95288002
11.345 1.0212903 1.05288
11.345 1.0712904 1.10288
11.295 1.1712904 0.95288002
11.245 1.2212903 0.75288004
11.245 1.2212903 0.80288005
11.245 1.2712903 0.75288004
11.245 1.2212903 0.90288001
11.245 1.3212904 0.75288004
11.245 1.3212904 0.85288
11.295 1.3712903 0.85288
11.345 1.3212904 0.85288
11.345 1.3212904 0.90288001
11.195 1.2712903 0.95288002
11.245 1.2712903 1.00288
11.245 1.2712903 1.05288
11.345 1.2212903 0.95288002
11.295 1.3712903 1.05288
11.395 1.2212903 1.05288
11.395 1.2212903 1.10288
11.295 1.4712903 0.60288
11.245 1.4212904 1.05288
11.845 1.0212903 0.60288
11.845 1.1712904 0.55287999
11.945 1.3212904 0.50288004
11.995 0.97129035 0.10288001
11.995 0.87129033 0.15288001
11.995 0.82129031 0.25288001
11.995 0.22129032 0.55287999
11.995 0.47129032 1.00288
12.045 0.42129034 0.95288002
11.995 0.57129031 1.00288
12.045 0.57129031 0.95288002
11.995 0.72129035 0.60288
12.045 0.77129036 0.60288
11.995 0.72129035 0.65288001
11.995 0.87129033 0.45288002
11.995 0.87129033 0.50288004
12.045 0.82129031 0.55287999
12.045 0.92129034 0.55287999
12.045 0.97129035 0.55287999
11.995 0.97129035 0.65288001
12.045 0.62129033 0.85288
11.995 0.67129034 0.95288002
12.045 0.67129034 1.00288
12.045 0.72129035 0.95288002
11.995 0.87129033 1.00288
11.995 0.92129034 1.00288
12.045 1.0712904 0.50288004
11.995 1.1212903 0.50288004
11.995 1.0712904 0.65288001
11.995 1.3712903 0.50288004
11.995 1.2212903 0.65288001
12.045 1.0212903 0.95288002
12.095 1.5712904 0.60288
12.095 1.6712904 0.50288004
12.095 1.7212903 0.40288001
12.095 1.6212903 0.60288
12.095 1.7712903 0.60288
12.095 1.7212903 0.65288001
12.095 1.7712903 0.65288001
12.095 1.5712904 0.80288005
12.045 1.4712903 1.00288
11.995 1.4212904 1.05288
12.095 1.5212903 1.00288
12.095 1.5712904 0.95288002
12.095 1.5712904 1.00288
12.095 1.5712904 1.10288
12.045 1.7712903 0.80288005
12.095 1.6212903 0.85288
12.095 1.7212903 0.85288
12.095 1.7212903 0.90288001
12.095 1.7712903 0.85288
12.045 1.7212903 1.00288
12.095 1.6212903 0.95288002
12.095 1.6712904 0.95288002
12.095 1.6712904 1.05288
12.095 1.7212903 1.00288
12.095 1.7212903 1.05288
11.245 0.27129033 1.30288
11.295 0.22129032 1.35288
11.345 0.47129032 1.20288
11.295 0.42129034 1.30288
11.295 0.5212903 1.30288
11.495 0.22129032 1.20288
11.495 0.37129033 1.45288
11.395 0.47129032 1.20288
11.495 0.5212903 1.45288
11.295 0.67129034 1.30288
11.345 0.72129035 1.20288
11.245 0.97129035 1.20288
11.245 0.92129034 1.30288
11.345 0.82129031 1.30288
11.345 0.97129035 1.20288
11.195 0.87129033 1.4028801
11.395 0.67129034 1.30288
11.395 0.77129036 1.4028801
11.445 0.82129031 1.25288
11.395 0.97129035 1.30288
11.695 0.27129033 1.1528801
11.695 0.27129033 1.25288
11.695 0.32129031 1.1528801
11.795 0.32129031 1.20288
11.695 0.77129036 1.4028801
11.945 0.62129033 1.20288
11.945 0.67129034 1.1528801
11.945 0.62129033 1.25288
11.845 0.67129034 1.50288
11.945 0.87129033 1.1528801
11.245 1.0212903 1.30288
11.195 1.1712904 1.25288
11.295 1.1212903 1.25288
11.245 1.0212903 1.4028801
11.245 1.1212903 1.35288
11.195 1.2212903 1.1528801
11.245 1.3212904 1.30288
11.295 1.2212903 1.20288
11.295 1.2212903 1.30288
11.195 1.2212903 1.35288
11.195 1.0712904 1.75288
11.995 0.5212903 1.1528801
11.995 0.47129032 1.45288
12.095 0.57129031 1.45288
11.995 0.42129034 1.85288
11.995 0.5212903 1.75288
11.995 0.62129033 1.1528801
11.995 0.77129036 1.1528801
12.045 0.67129034 1.4028801
11.995 0.92129034 1.1528801
11.995 0.92129034 1.4028801
11.995 0.72129035 1.85288
11.995 1.1712904 1.50288
11.995 1.3212904 1.20288
11.995 1.3212904 1.25288
12.045 1.3712903 1.50288
11.995 1.2212903 1.60288
11.995 1.2212903 1.75288
11.995 1.4712903 1.1528801
12.045 1.5212903 1.30288
12.045 1.4712903 1.45288
12.095 1.4712903 1.45288
12.095 1.5212903 1.50288
12.045 1.6712904 1.20288
12.045 1.6212903 1.30288
12.095 1.6712904 1.25288
12.095 1.7712903 1.20288
12.095 1.7212903 1.25288
12.045 1.6212903 1.50288
12.045 1.7212903 1.35288
12.045 1.7712903 1.45288
12.095 1.7212903 1.4028801
12.095 1.7712903 1.45288
12.095 1.7712903 1.50288
12.095 1.5212903 1.60288
11.995 1.4212904 1.85288
12.045 1.5712904 1.75288
9.8450003 1.9712903 -0.29712
9.8950005 1.9712903 -0.39712
9.8950005 1.9212904 -0.24711999
9.8950005 1.9712903 -0.097119994
9.9449997 2.0712903 -0.29712
9.9449997 2.0712903 -0.14712
9.8950005 2.1212904 -0.24711999
9.8450003 1.9712903 -0.04711999
9.8950005 1.8212904 0.052880011
9.8950005 1.8712903 0.052880011
9.8950005 1.8712903 0.10288001
9.9449997 1.9712903 0.0028800089
9.8450003 1.8212904 0.20288001
9.8450003 1.9212904 0.20288001
9.8450003 1.9712903 0.20288001
9.9449997 1.8212904 0.15288001
9.9449997 1.8212904 0.20288001
9.9449997 1.8712903 0.15288001
9.8950005 1.8712903 0.25288001
9.8950005 1.9712903 0.15288001
9.9449997 1.9212904 0.30288002
9.9449997 1.9712903 0.25288001
9.9449997 2.0212903 0.0028800089
9.9449997 2.0712903 -0.04711999
9.8950005 2.1212904 -0.04711999
9.9449997 2.1212904 0.0028800089
9.9449997 2.1712904 0.0028800089
9.8450003 2.0212903 0.20288001
9.8450003 2.0712903 0.20288001
9.8450003 2.1712904 0.20288001
9.8450003 2.1212904 0.30288002
9.8450003 2.1712904 0.30288002
9.8950005 2.0712903 0.15288001
9.8950005 2.0712903 0.25288001
9.9449997 2.0212903 0.25288001
9.8950005 2.1212904 0.15288001
9.8950005 2.1712904 0.25288001
9.9449997 2.1212904 0.25288001
9.9449997 2.3212903 -0.29712
9.9449997 2.3712904 -0.29712
9.9449997 2.2212903 -0.14712
9.9449997 2.2212903 -0.097119994
9.8950005 2.3712904 -0.24711999
9.9449997 2.3212903 -0.19712
9.9449997 2.5712903 -0.29712
9.9449997 2.5212903 -0.19712
9.8950005 2.2212903 -0.04711999
9.9449997 2.2712903 -0.04711999
9.9449997 2.2712903 0.0028800089
9.9449997 2.2212903 0.052880011
9.9449997 2.3712904 -0.04711999
9.9449997 2.3712904 0.0028800089
9.8450003 2.2712903 0.15288001
9.8450003 2.2712903 0.25288001
9.8450003 2.3212903 0.15288001
9.8450003 2.3712904 0.15288001
9.8450003 2.3712904 0.20288001
9.8450003 2.3212903 0.25288001
9.8450003 2.3712904 0.25288001
9.8450003 2.3712904 0.30288002
9.8950005 2.2212903 0.15288001
9.9449997 2.2212903 0.15288001
9.9449997 2.2712903 0.15288001
9.9449997 2.2712903 0.30288002
9.8950005 2.3712904 0.25288001
9.9449997 2.3212903 0.25288001
9.8950005 2.4212904 -0.04711999
