# .PCD v0.7 - Point Cloud Data file format
VERSION 0.7
FIELDS x y z
SIZE 4 4 4
TYPE F F F
COUNT 1 1 1
WIDTH 1563
HEIGHT 1
VIEWPOINT 0 0 0 1 0 0 0
POINTS 1563
DATA ascii
-3.1600001 1.7452903 -0.62412
-3.01 1.5952902 -0.62412
-3.1600001 1.5952902 -0.52411997
-3.1600001 1.6952902 -0.52411997
-3.1600001 1.7452903 -0.52411997
-3.01 1.6952902 -0.57411999
-2.8599999 1.4452902 -0.62412
-2.96 1.3952903 -0.57411999
-2.9100001 1.4452902 -0.52411997
-2.96 1.4952903 -0.57411999
-2.96 1.4952903 -0.52411997
-2.96 1.5452902 -0.52411997
-2.9100001 1.4952903 -0.47411999
-2.8099999 1.3952903 -0.57411999
-2.8599999 1.4952903 -0.57411999
-2.8599999 1.4952903 -0.52411997
-2.8599999 1.5452902 -0.52411997
-2.8599999 1.5452902 -0.47411999
-2.96 1.5952902 -0.57411999
-2.96 1.6952902 -0.57411999
-2.9100001 1.6952902 -0.57411999
-2.8599999 1.5952902 -0.57411999
-2.8099999 1.6952902 -0.52411997
-3.1600001 1.7952902 -0.52411997
-3.1600001 1.8452902 -0.52411997
-3.1600001 1.8452902 -0.47411999
-3.1600001 1.8952903 -0.57411999
-3.0599999 1.7952902 -0.52411997
-3.01 1.7952902 -0.57411999
-3.01 1.8452902 -0.52411997
-3.0599999 1.8952903 -0.52411997
-3.01 1.8952903 -0.57411999
-3.0599999 1.8952903 -0.47411999
-3.1600001 1.9952903 -0.52411997
-3.1099999 1.9952903 -0.52411997
-3.1600001 2.0952902 -0.52411997
-3.01 1.9952903 -0.57411999
-3.01 1.9952903 -0.52411997
-3.0599999 2.0952902 -0.52411997
-3.0599999 2.1452901 -0.57411999
-3.0599999 2.1452901 -0.52411997
-3.01 2.0952902 -0.57411999
-2.96 1.7952902 -0.57411999
-2.96 1.8452902 -0.47411999
-2.96 1.8952903 -0.52411997
-2.8599999 1.7952902 -0.57411999
-2.8599999 1.7952902 -0.52411997
-2.8599999 1.8952903 -0.57411999
-2.8599999 1.8952903 -0.52411997
-2.8099999 1.8952903 -0.52411997
-2.8599999 1.8952903 -0.47411999
-2.96 2.0952902 -0.52411997
-2.8599999 1.9952903 -0.57411999
-2.8599999 1.9952903 -0.52411997
-2.8099999 1.9952903 -0.57411999
-2.8099999 1.9952903 -0.52411997
-2.8599999 2.0952902 -0.57411999
-2.8599999 2.0952902 -0.52411997
-2.8599999 2.1452901 -0.57411999
-2.8099999 2.0952902 -0.57411999
-2.76 1.3952903 -0.52411997
-2.71 1.3952903 -0.52411997
-2.76 1.4952903 -0.52411997
-2.71 1.4952903 -0.57411999
-2.76 1.5452902 -0.47411999
-2.6600001 1.4952903 -0.57411999
-2.6600001 1.4952903 -0.52411997
-2.6600001 1.5452902 -0.47411999
-2.76 1.5952902 -0.52411997
-2.76 1.6452903 -0.57411999
-2.71 1.5952902 -0.57411999
-2.76 1.6952902 -0.57411999
-2.6600001 1.5952902 -0.52411997
-2.6600001 1.6452903 -0.52411997
-2.6099999 1.6452903 -0.57411999
-2.6099999 1.6952902 -0.57411999
-2.5599999 1.4952903 -0.52411997
-2.51 1.4952903 -0.52411997
-2.5599999 1.5452902 -0.47411999
-2.46 1.3952903 -0.57411999
-2.46 1.4452902 -0.52411997
-2.4100001 1.4452902 -0.52411997
-2.46 1.4952903 -0.52411997
-2.4100001 1.4952903 -0.52411997
-2.46 1.5452902 -0.47411999
-2.5599999 1.5952902 -0.57411999
-2.5599999 1.5952902 -0.52411997
-2.5599999 1.6452903 -0.52411997
-2.5599999 1.6952902 -0.52411997
-2.46 1.5952902 -0.52411997
-2.46 1.6452903 -0.52411997
-2.4100001 1.5952902 -0.52411997
-2.4100001 1.6952902 -0.57411999
-2.71 1.7952902 -0.57411999
-2.76 1.8452902 -0.47411999
-2.76 1.8952903 -0.52411997
-2.71 1.8952903 -0.57411999
-2.6600001 1.7952902 -0.57411999
-2.6600001 1.8452902 -0.47411999
-2.6600001 1.8952903 -0.57411999
-2.6600001 1.8952903 -0.52411997
-2.6600001 1.9452902 -0.57411999
-2.71 1.9952903 -0.57411999
-2.71 1.9952903 -0.52411997
-2.76 2.0952902 -0.52411997
-2.76 2.1452901 -0.52411997
-2.71 2.0952902 -0.57411999
-2.6600001 1.9952903 -0.57411999
-2.6600001 2.0952902 -0.57411999
-2.6600001 2.0952902 -0.52411997
-2.6099999 2.0952902 -0.52411997
-2.5599999 1.7952902 -0.52411997
-2.5599999 1.7952902 -0.47411999
-2.5599999 1.8452902 -0.47411999
-2.51 1.7952902 -0.47411999
-2.5599999 1.8952903 -0.57411999
-2.5599999 1.8952903 -0.52411997
-2.46 1.7952902 -0.57411999
-2.46 1.7952902 -0.47411999
-2.4100001 1.8452902 -0.47411999
-2.46 1.8952903 -0.57411999
-2.46 1.8952903 -0.52411997
-2.4100001 1.8952903 -0.57411999
-2.5599999 1.9952903 -0.57411999
-2.5599999 1.9952903 -0.52411997
-2.5599999 2.0952902 -0.57411999
-2.51 2.0952902 -0.52411997
-2.46 1.9952903 -0.57411999
-2.46 1.9952903 -0.52411997
-2.46 2.0452902 -0.57411999
-2.46 2.0952902 -0.57411999
-2.4100001 2.0952902 -0.57411999
-3.1099999 2.1952903 -0.57411999
-3.1099999 2.2952902 -0.57411999
-3.01 2.1952903 -0.57411999
-3.0599999 2.2952902 -0.57411999
-3.1600001 2.3952901 -0.57411999
-3.1099999 2.3952901 -0.57411999
-3.1600001 2.4952903 -0.57411999
-3.0599999 2.3952901 -0.57411999
-3.01 2.4952903 -0.57411999
-2.96 2.1952903 -0.57411999
-2.96 2.1952903 -0.52411997
-2.96 2.2452903 -0.57411999
-2.96 2.2952902 -0.57411999
-2.8599999 2.1952903 -0.52411997
-2.8099999 2.1952903 -0.57411999
-2.8099999 2.2452903 -0.47411999
-2.8599999 2.2952902 -0.57411999
-2.96 2.3952901 -0.57411999
-2.9100001 2.4952903 -0.57411999
-2.9100001 2.5452902 -0.57411999
-2.8599999 2.3952901 -0.57411999
-3.1600001 2.5952902 -0.57411999
-3.1600001 2.6952903 -0.57411999
-3.1600001 2.6952903 -0.52411997
-3.1099999 2.6952903 -0.52411997
-3.01 2.5952902 -0.57411999
-3.01 2.6952903 -0.57411999
-3.1099999 2.7952902 -0.57411999
-3.1099999 2.8452902 -0.57411999
-3.1600001 2.9452903 -0.57411999
-3.1099999 2.9452903 -0.57411999
-3.0599999 2.7952902 -0.57411999
-3.0599999 2.9452903 -0.57411999
-3.01 2.8952901 -0.57411999
-3.01 2.9452903 -0.52411997
-2.96 2.7452903 -0.52411997
-2.8599999 2.5952902 -0.57411999
-2.8599999 2.6952903 -0.57411999
-2.8599999 2.7452903 -0.52411997
-2.8099999 2.7452903 -0.52411997
-2.96 2.7952902 -0.57411999
-2.96 2.8952901 -0.57411999
-2.96 2.9452903 -0.52411997
-2.9100001 2.9452903 -0.52411997
-2.8099999 2.7952902 -0.57411999
-2.8599999 2.9452903 -0.52411997
-2.8099999 2.8952901 -0.57411999
-2.76 2.1952903 -0.57411999
-2.76 2.2452903 -0.52411997
-2.71 2.2452903 -0.47411999
-2.76 2.2952902 -0.57411999
-2.71 2.3452902 -0.47411999
-2.6600001 2.1952903 -0.52411997
-2.6600001 2.2452903 -0.52411997
-2.6099999 2.1952903 -0.57411999
-2.6099999 2.2952902 -0.57411999
-2.6600001 2.3452902 -0.47411999
-2.76 2.3952901 -0.57411999
-2.71 2.3952901 -0.57411999
-2.76 2.4452903 -0.47411999
-2.76 2.4952903 -0.57411999
-2.6600001 2.3952901 -0.47411999
-2.6600001 2.5452902 -0.57411999
-2.6099999 2.5452902 -0.47411999
-2.5599999 2.1952903 -0.57411999
-2.5599999 2.1952903 -0.52411997
-2.51 2.1952903 -0.52411997
-2.5599999 2.2952902 -0.57411999
-2.5599999 2.2952902 -0.52411997
-2.46 2.1952903 -0.57411999
-2.46 2.2952902 -0.57411999
-2.46 2.2952902 -0.52411997
-2.4100001 2.2952902 -0.57411999
-2.5599999 2.3952901 -0.57411999
-2.51 2.3952901 -0.57411999
-2.5599999 2.4452903 -0.47411999
-2.51 2.4952903 -0.57411999
-2.5599999 2.4952903 -0.47411999
-2.46 2.3952901 -0.57411999
-2.4100001 2.3952901 -0.57411999
-2.4100001 2.4452903 -0.57411999
-2.46 2.5452902 -0.47411999
-2.71 2.5952902 -0.57411999
-2.76 2.6952903 -0.57411999
-2.76 2.7452903 -0.52411997
-2.6600001 2.5952902 -0.57411999
-2.6600001 2.6952903 -0.57411999
-2.6600001 2.7452903 -0.52411997
-2.76 2.7952902 -0.57411999
-2.76 2.9452903 -0.52411997
-2.71 2.8952901 -0.57411999
-2.6099999 2.7952902 -0.57411999
-2.6600001 2.9452903 -0.52411997
-2.5599999 2.6452901 -0.47411999
-2.5599999 2.7452903 -0.52411997
-2.51 2.6952903 -0.47411999
-2.4100001 2.5952902 -0.47411999
-2.46 2.7452903 -0.52411997
-2.5599999 2.7952902 -0.57411999
-2.5599999 2.9452903 -0.52411997
-2.51 2.8952901 -0.57411999
-2.46 2.8952901 -0.52411997
-2.46 2.9452903 -0.57411999
-3.96 3.0952902 -0.57411999
-3.9100001 3.1452904 -0.52411997
-3.8600001 3.0952902 -0.57411999
-3.8600001 3.1452904 -0.57411999
-3.8099999 3.1452904 -0.57411999
-3.96 3.1952903 -0.57411999
-3.9100001 3.2952902 -0.57411999
-3.9100001 3.3452902 -0.57411999
-3.71 2.9952903 -0.57411999
-3.71 3.0952902 -0.57411999
-3.71 3.1452904 -0.57411999
-3.76 3.1952903 -0.57411999
-3.76 3.2452903 -0.57411999
-3.71 3.2952902 -0.57411999
-3.6600001 3.1952903 -0.57411999
-3.6600001 3.3452902 -0.57411999
-3.9100001 3.3952904 -0.57411999
-3.8099999 3.3952904 -0.57411999
-3.8099999 3.4952903 -0.57411999
-3.96 3.6452904 -0.52411997
-3.8600001 3.6452904 -0.57411999
-3.8600001 3.6452904 -0.52411997
-3.8099999 3.5952902 -0.57411999
-3.8099999 3.6452904 -0.57411999
-3.8600001 3.6952903 -0.52411997
-3.8600001 3.7452903 -0.52411997
-3.71 3.4952903 -0.57411999
-3.6600001 3.5452902 -0.57411999
-3.76 3.6452904 -0.57411999
-3.76 3.7452903 -0.52411997
-3.71 3.6952903 -0.57411999
-3.71 3.6952903 -0.52411997
-3.6600001 3.6952903 -0.57411999
-3.6600001 3.7452903 -0.57411999
-3.46 2.9952903 -0.57411999
-3.46 3.0952902 -0.57411999
-3.5599999 3.1952903 -0.57411999
-3.5599999 3.2452903 -0.57411999
-3.46 3.1952903 -0.57411999
-3.46 3.2952902 -0.57411999
-3.4100001 3.2952902 -0.57411999
-3.3099999 2.9952903 -0.57411999
-3.21 2.9952903 -0.57411999
-3.3600001 3.1952903 -0.57411999
-3.3600001 3.3452902 -0.57411999
-3.26 3.1952903 -0.57411999
-3.26 3.2452903 -0.57411999
-3.21 3.1952903 -0.57411999
-3.26 3.3452902 -0.57411999
-3.5599999 3.3952904 -0.57411999
-3.46 3.4452903 -0.57411999
-3.4100001 3.4952903 -0.57411999
-3.5599999 3.5952902 -0.57411999
-3.5599999 3.6452904 -0.57411999
-3.51 3.6952903 -0.57411999
-3.46 3.6452904 -0.57411999
-3.4100001 3.6452904 -0.57411999
-3.4100001 3.7452903 -0.57411999
-3.26 3.6452904 -0.57411999
-3.76 3.8952904 -0.52411997
-3.71 3.8952904 -0.52411997
-3.6100001 3.7952902 -0.57411999
-3.6600001 3.9452903 -0.52411997
-3.5599999 3.8952904 -0.57411999
-3.5599999 3.8952904 -0.52411997
-3.46 3.9452903 -0.52411997
-3.51 4.0452905 -0.52411997
-3.4100001 4.0452905 -0.52411997
-3.4100001 4.1452904 -0.52411997
-3.3600001 3.7952902 -0.57411999
-3.26 3.8952904 -0.57411999
-3.3099999 4.0952902 -0.52411997
-3.21 4.1452904 -0.52411997
-3.3099999 4.2452903 -0.52411997
-3.8600001 4.5452905 0.075880013
-3.76 4.5452905 0.075880013
-3.76 4.5452905 0.12588002
-3.1600001 3.1452904 -0.57411999
-3.0599999 2.9952903 -0.57411999
-3.01 3.0952902 -0.57411999
-3.1600001 3.2452903 -0.57411999
-3.1099999 3.1952903 -0.57411999
-3.1099999 3.2452903 -0.57411999
-3.0599999 3.1952903 -0.57411999
-3.0599999 3.2952902 -0.57411999
-2.9100001 2.9952903 -0.57411999
-2.96 3.0952902 -0.57411999
-2.8599999 2.9952903 -0.57411999
-2.8599999 3.0952902 -0.57411999
-2.96 3.1952903 -0.57411999
-2.96 3.2452903 -0.57411999
-2.9100001 3.1952903 -0.57411999
-2.8599999 3.1952903 -0.52411997
-2.8599999 3.2452903 -0.57411999
-2.8099999 3.1952903 -0.57411999
-2.8099999 3.2452903 -0.52411997
-2.8099999 3.2952902 -0.57411999
-3.1600001 3.3952904 -0.57411999
-3.0599999 3.3952904 -0.57411999
-3.1600001 3.5952902 -0.57411999
-3.1099999 3.5952902 -0.57411999
-3.01 3.6452904 -0.57411999
-2.96 3.3952904 -0.57411999
-2.96 3.4452903 -0.57411999
-2.9100001 3.4452903 -0.57411999
-2.96 3.5452902 -0.57411999
-2.8599999 3.4452903 -0.57411999
-2.8599999 3.5452902 -0.57411999
-2.9100001 3.6952903 -0.57411999
-2.76 2.9952903 -0.57411999
-2.71 3.0952902 -0.57411999
-2.6600001 2.9952903 -0.57411999
-2.6600001 3.1452904 -0.52411997
-2.6099999 3.0952902 -0.57411999
-2.76 3.1952903 -0.57411999
-2.76 3.1952903 -0.52411997
-2.71 3.2452903 -0.57411999
-2.6600001 3.1952903 -0.57411999
-2.6600001 3.2452903 -0.52411997
-2.6099999 3.2452903 -0.57411999
-2.5599999 3.0952902 -0.57411999
-2.5599999 3.1452904 -0.52411997
-2.46 2.9952903 -0.57411999
-2.46 3.0952902 -0.52411997
-2.5599999 3.1952903 -0.57411999
-2.5599999 3.1952903 -0.52411997
-2.46 3.2452903 -0.52411997
-2.4100001 3.3452902 -0.52411997
-2.76 3.4952903 -0.52411997
-2.6600001 3.4452903 -0.52411997
-2.76 3.7452903 -0.57411999
-2.6600001 3.7452903 -0.52411997
-2.6099999 3.6952903 -0.57411999
-2.5599999 3.4452903 -0.52411997
-2.51 3.3952904 -0.52411997
-2.46 3.3952904 -0.52411997
-2.46 3.4452903 -0.52411997
-2.5599999 3.6952903 -0.57411999
-2.5599999 3.7452903 -0.52411997
-2.51 3.7452903 -0.57411999
-2.4100001 3.5952902 -0.57411999
-2.4100001 3.6952903 -0.57411999
-3.1600001 3.9452903 -0.57411999
-3.01 3.9952903 -0.57411999
-2.8599999 4.0952902 -0.57411999
-2.8099999 4.1452904 -0.57411999
-3.1099999 4.2452903 -0.57411999
-3.1600001 4.3452902 -0.52411997
-3.01 4.2952905 -0.57411999
-2.96 4.3452902 -0.52411997
-2.8599999 4.3952904 -0.52411997
-2.46 3.7952902 -0.52411997
-2.4100001 3.7952902 -0.52411997
-2.6600001 4.1952901 -0.57411999
-2.76 4.4952903 -0.52411997
-2.6600001 4.5452905 -0.52411997
-2.5599999 4.2452903 -0.57411999
-2.46 4.2952905 -0.57411999
-2.3599999 1.4452902 -0.52411997
-2.3099999 1.3952903 -0.52411997
-2.3599999 1.4952903 -0.52411997
-2.3099999 1.4952903 -0.52411997
-2.3599999 1.5452902 -0.47411999
-2.3099999 1.4952903 -0.47411999
-2.26 1.3952903 -0.52411997
-2.21 1.3952903 -0.52411997
-2.26 1.4952903 -0.52411997
-2.21 1.4952903 -0.52411997
-2.26 1.5452902 -0.47411999
-2.21 1.4952903 -0.47411999
-2.21 1.5452902 -0.47411999
-2.3599999 1.5952902 -0.57411999
-2.3599999 1.5952902 -0.52411997
-2.3599999 1.6452903 -0.52411997
-2.3099999 1.6452903 -0.52411997
-2.3099999 1.6952902 -0.57411999
-2.26 1.5952902 -0.52411997
-2.26 1.6952902 -0.57411999
-2.21 1.7452903 -0.57411999
-2.1600001 1.3952903 -0.52411997
-2.1600001 1.4452902 -0.52411997
-2.1099999 1.3952903 -0.52411997
-2.1099999 1.4452902 -0.52411997
-2.1600001 1.4952903 -0.52411997
-2.1600001 1.5452902 -0.47411999
-2.1099999 1.5452902 -0.47411999
-2.0599999 1.3952903 -0.52411997
-2.01 1.3952903 -0.52411997
-2.0599999 1.4952903 -0.52411997
-2.01 1.4952903 -0.52411997
-2.01 1.5452902 -0.52411997
-2.0599999 1.4952903 -0.47411999
-2.1600001 1.5952902 -0.52411997
-2.1600001 1.6952902 -0.57411999
-2.1600001 1.7452903 -0.47411999
-2.1099999 1.7452903 -0.47411999
-2.0599999 1.5952902 -0.52411997
-2.01 1.5952902 -0.47411999
-2.0599999 1.6952902 -0.57411999
-2.01 1.7452903 -0.52411997
-2.01 1.6952902 -0.47411999
-2.3599999 1.7952902 -0.57411999
-2.3599999 1.7952902 -0.47411999
-2.3599999 1.8952903 -0.57411999
-2.3599999 1.8952903 -0.52411997
-2.3599999 1.8952903 -0.47411999
-2.26 1.7952902 -0.57411999
-2.26 1.8452902 -0.52411997
-2.21 1.7952902 -0.47411999
-2.26 1.8952903 -0.57411999
-2.26 1.8952903 -0.52411997
-2.26 1.9452902 -0.47411999
-2.3599999 1.9952903 -0.57411999
-2.3599999 1.9952903 -0.52411997
-2.3099999 1.9952903 -0.57411999
-2.3599999 2.0952902 -0.57411999
-2.3599999 2.0952902 -0.52411997
-2.26 1.9952903 -0.57411999
-2.26 1.9952903 -0.52411997
-2.26 2.0952902 -0.52411997
-2.21 2.0952902 -0.57411999
-2.26 2.1452901 -0.47411999
-2.1600001 1.7952902 -0.57411999
-2.1600001 1.7952902 -0.52411997
-2.1600001 1.8952903 -0.57411999
-2.1600001 1.8952903 -0.52411997
-2.1600001 1.9452902 -0.57411999
-2.1600001 1.9452902 -0.52411997
-2.1099999 1.8952903 -0.52411997
-2.1600001 1.9452902 -0.47411999
-2.0599999 1.7952902 -0.57411999
-2.0599999 1.7952902 -0.52411997
-2.0599999 1.8952903 -0.57411999
-2.1600001 1.9952903 -0.57411999
-2.1600001 2.0452902 -0.52411997
-2.1600001 2.0452902 -0.47411999
-2.1600001 2.0952902 -0.57411999
-2.1600001 2.1452901 -0.52411997
-2.1099999 2.1452901 -0.52411997
-2.0599999 1.9952903 -0.52411997
-2.01 1.9952903 -0.57411999
-2.01 1.9952903 -0.47411999
-2.0599999 2.0952902 -0.57411999
-2.0599999 2.1452901 -0.52411997
-1.91 1.3952903 -0.52411997
-1.91 1.4452902 -0.47411999
-1.96 1.4952903 -0.52411997
-1.96 1.4952903 -0.47411999
-1.86 1.3952903 -0.52411997
-1.8099999 1.4452902 -0.47411999
-1.86 1.4952903 -0.52411997
-1.96 1.5952902 -0.52411997
-1.91 1.5952902 -0.52411997
-1.91 1.6452903 -0.52411997
-1.96 1.6452903 -0.47411999
-1.96 1.6952902 -0.52411997
-1.86 1.5952902 -0.52411997
-1.8099999 1.5952902 -0.52411997
-1.86 1.6452903 -0.47411999
-1.86 1.6952902 -0.52411997
-1.8099999 1.7452903 -0.52411997
-1.76 1.3952903 -0.52411997
-1.76 1.4452902 -0.47411999
-1.76 1.4952903 -0.52411997
-1.71 1.5452902 -0.47411999
-1.61 1.3952903 -0.52411997
-1.66 1.3952903 -0.47411999
-1.61 1.4952903 -0.52411997
-1.61 1.5452902 -0.52411997
-1.66 1.4952903 -0.47411999
-1.76 1.5952902 -0.52411997
-1.76 1.5952902 -0.47411999
-1.76 1.6952902 -0.52411997
-1.71 1.6952902 -0.57411999
-1.76 1.6952902 -0.47411999
-1.66 1.7452903 -0.47411999
-1.96 1.7952902 -0.57411999
-1.96 1.8452902 -0.52411997
-1.96 1.8952903 -0.57411999
-1.91 1.9452902 -0.52411997
-1.86 1.7952902 -0.57411999
-1.86 1.7952902 -0.52411997
-1.8099999 1.7952902 -0.57411999
-1.86 1.8952903 -0.52411997
-1.8099999 1.8952903 -0.57411999
-1.86 1.9452902 -0.47411999
-1.8099999 1.8952903 -0.47411999
-1.96 1.9952903 -0.52411997
-1.91 1.9952903 -0.57411999
-1.96 1.9952903 -0.47411999
-1.96 2.0952902 -0.52411997
-1.91 2.0952902 -0.57411999
-1.8099999 1.9952903 -0.57411999
-1.8099999 2.0452902 -0.52411997
-1.86 2.0952902 -0.57411999
-1.86 2.0952902 -0.52411997
-1.8099999 2.1452901 -0.52411997
-1.86 2.1452901 -0.47411999
-1.76 1.7952902 -0.52411997
-1.76 1.8452902 -0.52411997
-1.71 1.7952902 -0.52411997
-1.76 1.7952902 -0.47411999
-1.76 1.8952903 -0.52411997
-1.66 1.9452902 -0.52411997
-1.61 1.9452902 -0.52411997
-1.76 1.9952903 -0.57411999
-1.76 2.0452902 -0.52411997
-1.76 2.0952902 -0.52411997
-1.76 2.1452901 -0.47411999
-1.71 2.0952902 -0.47411999
-1.66 1.9952903 -0.52411997
-1.66 2.0452902 -0.47411999
-1.66 2.1452901 -0.52411997
-1.61 2.0952902 -0.52411997
-1.66 2.0952902 -0.47411999
-2.3599999 2.1952903 -0.57411999
-2.3599999 2.1952903 -0.52411997
-2.3599999 2.2952902 -0.57411999
-2.3599999 2.2952902 -0.52411997
-2.3599999 2.3452902 -0.57411999
-2.3099999 2.2952902 -0.57411999
-2.26 2.1952903 -0.52411997
-2.21 2.1952903 -0.57411999
-2.26 2.2952902 -0.57411999
-2.26 2.2952902 -0.52411997
-2.3099999 2.3952901 -0.57411999
-2.3099999 2.4952903 -0.57411999
-2.26 2.3952901 -0.57411999
-2.21 2.3952901 -0.57411999
-2.26 2.4952903 -0.57411999
-2.1600001 2.1952903 -0.57411999
-2.1600001 2.2452903 -0.57411999
-2.1099999 2.1952903 -0.57411999
-2.1600001 2.2952902 -0.57411999
-2.1600001 2.2952902 -0.52411997
-2.0599999 2.2452903 -0.57411999
-2.01 2.1952903 -0.57411999
-2.0599999 2.2952902 -0.52411997
-2.1600001 2.3952901 -0.57411999
-2.1600001 2.4952903 -0.57411999
-2.0599999 2.4952903 -0.57411999
-2.3099999 2.5952902 -0.57411999
-2.3099999 2.6452901 -0.57411999
-2.3599999 2.5952902 -0.47411999
-2.3599999 2.7452903 -0.52411997
-2.3099999 2.7452903 -0.52411997
-2.21 2.5952902 -0.57411999
-2.26 2.6952903 -0.57411999
-2.26 2.7452903 -0.52411997
-2.21 2.7452903 -0.57411999
-2.3599999 2.8952901 -0.52411997
-2.26 2.8452902 -0.52411997
-2.1099999 2.5952902 -0.57411999
-2.1600001 2.6952903 -0.52411997
-2.1600001 2.7452903 -0.57411999
-2.1099999 2.6952903 -0.57411999
-2.0599999 2.5952902 -0.57411999
-2.0599999 2.6952903 -0.57411999
-2.0599999 2.6952903 -0.52411997
-2.0599999 2.7452903 -0.52411997
-2.01 2.7452903 -0.52411997
-2.1600001 2.8452902 -0.52411997
-2.1099999 2.8452902 -0.52411997
-2.0599999 2.7952902 -0.52411997
-2.0599999 2.8952901 -0.52411997
-1.96 2.1952903 -0.57411999
-1.96 2.2452903 -0.52411997
-1.91 2.1952903 -0.57411999
-1.91 2.2452903 -0.52411997
-1.96 2.2952902 -0.57411999
-1.86 2.1952903 -0.57411999
-1.8099999 2.1952903 -0.57411999
-1.8099999 2.2452903 -0.52411997
-1.86 2.2952902 -0.57411999
-1.8099999 2.3452902 -0.57411999
-1.86 2.3452902 -0.47411999
-1.91 2.3952901 -0.57411999
-1.91 2.4452903 -0.57411999
-1.91 2.4452903 -0.47411999
-1.86 2.3952901 -0.57411999
-1.8099999 2.3952901 -0.57411999
-1.86 2.4952903 -0.52411997
-1.8099999 2.4952903 -0.57411999
-1.8099999 2.5452902 -0.52411997
-1.76 2.1952903 -0.52411997
-1.76 2.2452903 -0.52411997
-1.71 2.3452902 -0.57411999
-1.76 2.2952902 -0.47411999
-1.66 2.1952903 -0.52411997
-1.61 2.1952903 -0.52411997
-1.61 2.2952902 -0.52411997
-1.76 2.3952901 -0.57411999
-1.71 2.3952901 -0.57411999
-1.76 2.4952903 -0.57411999
-1.76 2.4952903 -0.52411997
-1.66 2.3952901 -0.52411997
-1.61 2.4452903 -0.52411997
-1.66 2.4952903 -0.52411997
-1.96 2.6452901 -0.57411999
-1.96 2.6452901 -0.52411997
-1.96 2.6952903 -0.52411997
-1.86 2.6452901 -0.52411997
-1.86 2.6952903 -0.52411997
-1.8099999 2.7452903 -0.52411997
-1.96 2.8452902 -0.52411997
-1.91 2.7952902 -0.47411999
-1.86 2.7952902 -0.52411997
-1.8099999 2.7952902 -0.52411997
-1.86 2.7952902 -0.47411999
-1.86 2.9452903 -0.52411997
-1.8099999 2.8952901 -0.52411997
-1.76 2.5952902 -0.52411997
-1.71 2.6452901 -0.52411997
-1.76 2.6952903 -0.52411997
-1.71 2.6952903 -0.52411997
-1.76 2.7452903 -0.47411999
-1.66 2.5952902 -0.52411997
-1.66 2.6452901 -0.52411997
-1.61 2.6452901 -0.52411997
-1.66 2.6952903 -0.52411997
-1.61 2.6952903 -0.52411997
-1.61 2.7452903 -0.52411997
-1.66 2.7452903 -0.47411999
-1.76 2.8452902 -0.52411997
-1.71 2.7952902 -0.52411997
-1.76 2.8952901 -0.52411997
-1.76 2.9452903 -0.52411997
-1.61 2.8452902 -0.52411997
-1.66 2.8952901 -0.52411997
-1.51 1.3952903 -0.52411997
-1.51 1.4452902 -0.57411999
-1.5599999 1.4452902 -0.47411999
-1.5599999 1.4952903 -0.52411997
-1.46 1.3952903 -0.47411999
-1.46 1.4952903 -0.42411998
-1.51 1.6452903 -0.47411999
-1.46 1.5952902 -0.47411999
-1.41 1.5952902 -0.42411998
-1.36 1.4952903 -0.47411999
-1.26 1.3952903 -0.42411998
-1.21 1.4952903 -0.47411999
-1.3099999 1.6452903 -0.47411999
-1.36 1.6952902 -0.47411999
-1.26 1.5952902 -0.47411999
-1.26 1.3952903 -0.32411999
-1.21 1.4452902 -0.32411999
-1.26 1.3952903 -0.22411999
-1.26 1.3952903 -0.12411999
-1.21 1.4452902 -0.12411999
-1.41 1.8452902 -0.47411999
-1.46 1.9452902 -0.47411999
-1.5599999 2.0452902 -0.47411999
-1.51 1.9952903 -0.47411999
-1.5599999 2.0952902 -0.52411997
-1.51 2.0952902 -0.52411997
-1.36 1.8952903 -0.47411999
-1.26 2.1452901 -0.62412
-1.21 2.1452901 -0.62412
-1.0599999 1.3952903 -0.42411998
-1.01 1.3952903 -0.47411999
-1.16 1.5952902 -0.47411999
-1.16 1.6952902 -0.47411999
-1.11 1.6952902 -0.47411999
-1.0599999 1.5952902 -0.47411999
-1.01 1.6952902 -0.47411999
-0.95999998 1.3952903 -0.42411998
-0.90999997 1.3952903 -0.47411999
-0.85999995 1.3952903 -0.52411997
-0.85999995 1.4452902 -0.42411998
-0.81 1.4952903 -0.52411997
-0.81 1.5952902 -0.52411997
-0.81 1.6452903 -0.52411997
-0.85999995 1.6952902 -0.42411998
-1.16 1.3952903 -0.37412
-1.16 1.3952903 -0.32411999
-1.16 1.3952903 -0.22411999
-1.16 1.4452902 -0.27412
-1.0599999 1.3952903 -0.32411999
-1.0599999 1.4452902 -0.32411999
-1.0599999 1.3952903 -0.22411999
-1.0599999 1.4952903 -0.22411999
-1.16 1.3952903 -0.12411999
-1.16 1.4452902 -0.12411999
-1.0599999 1.3952903 -0.12411999
-1.0599999 1.4952903 -0.12411999
-1.0599999 1.5452902 -0.17411999
-0.95999998 1.3952903 -0.32411999
-0.90999997 1.4452902 -0.32411999
-0.90999997 1.4452902 -0.22411999
-0.85999995 1.4452902 -0.32411999
-0.81 1.4452902 -0.37412
-0.81 1.4452902 -0.32411999
-0.85999995 1.4452902 -0.22411999
-0.95999998 1.4452902 -0.12411999
-0.90999997 1.3952903 -0.12411999
-0.90999997 1.4452902 -0.12411999
-0.95999998 1.5452902 -0.12411999
-0.85999995 1.4452902 -0.12411999
-0.95999998 1.5952902 -0.17411999
-0.85999995 1.5952902 -0.12411999
-1.16 1.7952902 -0.47411999
-1.0599999 1.7952902 -0.47411999
-1.01 1.8452902 -0.47411999
-1.0599999 1.8952903 -0.47411999
-1.11 2.0952902 -0.52411997
-1.0599999 2.0952902 -0.52411997
-0.95999998 1.7952902 -0.47411999
-0.90999997 1.9452902 -0.52411997
-0.95999998 1.9452902 -0.47411999
-0.90999997 1.8952903 -0.47411999
-0.85999995 1.7952902 -0.52411997
-0.81 1.7952902 -0.52411997
-0.81 1.8452902 -0.52411997
-0.85999995 1.7952902 -0.47411999
-0.85999995 1.9452902 -0.52411997
-0.81 1.8952903 -0.52411997
-0.95999998 2.1452901 -0.52411997
-0.81 1.9952903 -0.52411997
-0.85999995 2.1452901 -0.52411997
-0.81 2.0952902 -0.52411997
-1.11 2.0452902 -0.22411999
-1.11 2.0952902 -0.074119985
-0.95999998 1.7952902 -0.32411999
-1.5599999 2.2952902 -0.62412
-1.5599999 2.2952902 -0.52411997
-1.5599999 2.3952901 -0.52411997
-1.5599999 2.4952903 -0.52411997
-1.51 2.5452902 -0.52411997
-1.46 2.3952901 -0.52411997
-1.46 2.4452903 -0.52411997
-1.41 2.4452903 -0.52411997
-1.46 2.4952903 -0.52411997
-1.41 2.5452902 -0.52411997
-1.3099999 2.2952902 -0.47411999
-1.3099999 2.3452902 -0.47411999
-1.26 2.2952902 -0.47411999
-1.36 2.3952901 -0.47411999
-1.3099999 2.3952901 -0.42411998
-1.36 2.4952903 -0.52411997
-1.21 2.3952901 -0.42411998
-1.21 2.4452903 -0.47411999
-1.26 2.4952903 -0.52411997
-1.46 2.5952902 -0.62412
-1.5599999 2.5952902 -0.52411997
-1.51 2.5952902 -0.52411997
-1.5599999 2.6952903 -0.52411997
-1.51 2.6952903 -0.52411997
-1.51 2.7452903 -0.52411997
-1.5599999 2.7452903 -0.47411999
-1.46 2.6952903 -0.52411997
-1.41 2.6952903 -0.52411997
-1.41 2.7452903 -0.52411997
-1.46 2.6952903 -0.47411999
-1.5599999 2.8452902 -0.52411997
-1.5599999 2.9452903 -0.52411997
-1.46 2.7952902 -0.52411997
-1.41 2.7952902 -0.52411997
-1.36 2.5952902 -0.62412
-1.36 2.6952903 -0.52411997
-1.36 2.7452903 -0.52411997
-1.36 2.6952903 -0.47411999
-1.26 2.6452901 -0.47411999
-1.26 2.6952903 -0.52411997
-1.26 2.7452903 -0.52411997
-1.36 2.7952902 -0.52411997
-1.3099999 2.7952902 -0.52411997
-1.3099999 2.8452902 -0.52411997
-1.26 2.7952902 -0.52411997
-1.26 2.8452902 -0.52411997
-1.21 2.7952902 -0.52411997
-1.21 2.8452902 -0.52411997
-1.0599999 2.4452903 -0.62412
-1.0599999 2.4952903 -0.62412
-1.16 2.3952901 -0.42411998
-1.16 2.4952903 -0.52411997
-1.01 2.4452903 -0.52411997
-1.0599999 2.4952903 -0.52411997
-1.0599999 2.4952903 -0.47411999
-0.81 2.1952903 -0.52411997
-0.81 2.2952902 -0.52411997
-0.95999998 2.3952901 -0.62412
-0.90999997 2.3952901 -0.52411997
-0.95999998 2.4952903 -0.52411997
-0.85999995 2.3952901 -0.52411997
-0.85999995 2.4952903 -0.52411997
-1.11 2.5952902 -0.67412001
-1.16 2.5952902 -0.52411997
-1.16 2.6452901 -0.47411999
-1.11 2.5952902 -0.47411999
-1.11 2.6952903 -0.52411997
-1.0599999 2.6952903 -0.52411997
-1.0599999 2.7452903 -0.52411997
-1.01 2.6952903 -0.52411997
-1.16 2.7952902 -0.52411997
-1.16 2.8452902 -0.52411997
-1.11 2.8452902 -0.52411997
-1.16 2.8952901 -0.52411997
-1.0599999 2.7952902 -0.52411997
-1.0599999 2.8952901 -0.52411997
-1.01 2.8952901 -0.52411997
-0.90999997 2.6452901 -0.52411997
-0.95999998 2.6952903 -0.52411997
-0.85999995 2.6452901 -0.52411997
-0.85999995 2.6952903 -0.52411997
-0.95999998 2.8452902 -0.52411997
-0.90999997 2.7952902 -0.52411997
-0.95999998 2.9452903 -0.52411997
-0.95999998 2.8952901 -0.47411999
-0.85999995 2.7952902 -0.52411997
-0.85999995 2.8452902 -0.47411999
-0.81 2.7952902 -0.47411999
-0.85999995 2.9452903 -0.52411997
-0.81 2.8952901 -0.52411997
-0.81 2.9452903 -0.52411997
-2.3599999 3.0452902 -0.57411999
-2.3599999 3.0452902 -0.52411997
-2.26 2.9952903 -0.52411997
-2.3599999 3.1952903 -0.52411997
-2.3599999 3.3452902 -0.52411997
-2.26 3.1952903 -0.52411997
-2.26 3.2452903 -0.52411997
-2.1600001 2.9952903 -0.52411997
-2.1099999 3.1452904 -0.52411997
-2.0599999 3.0952902 -0.52411997
-2.0599999 3.1452904 -0.52411997
-2.1600001 3.1952903 -0.52411997
-2.1099999 3.2452903 -0.52411997
-2.01 3.3452902 -0.52411997
-2.3599999 3.4452903 -0.52411997
-2.3599999 3.5452902 -0.57411999
-2.26 3.4452903 -0.52411997
-2.21 3.3952904 -0.52411997
-2.3599999 3.5952902 -0.52411997
-2.3599999 3.6952903 -0.52411997
-2.26 3.5952902 -0.52411997
-2.26 3.7452903 -0.52411997
-2.1600001 3.3952904 -0.52411997
-2.1600001 3.4452903 -0.52411997
-2.1099999 3.4452903 -0.52411997
-2.0599999 3.3952904 -0.52411997
-2.01 3.4952903 -0.52411997
-2.1600001 3.6452904 -0.52411997
-2.1099999 3.6452904 -0.52411997
-2.0599999 3.6952903 -0.52411997
-1.96 3.0452902 -0.52411997
-1.91 2.9952903 -0.52411997
-1.86 2.9952903 -0.52411997
-1.8099999 3.0452902 -0.52411997
-1.96 3.3452902 -0.52411997
-1.86 3.3452902 -0.52411997
-1.8099999 3.2952902 -0.52411997
-1.76 2.9952903 -0.52411997
-1.76 3.0952902 -0.52411997
-1.76 3.1452904 -0.52411997
-1.66 2.9952903 -0.52411997
-1.66 3.0952902 -0.52411997
-1.66 3.1452904 -0.52411997
-1.61 3.1452904 -0.52411997
-1.76 3.2452903 -0.52411997
-1.71 3.2952902 -0.52411997
-1.71 3.3452902 -0.52411997
-1.66 3.2452903 -0.52411997
-1.66 3.3452902 -0.52411997
-1.96 3.3952904 -0.52411997
-1.96 3.5452902 -0.52411997
-1.91 3.5452902 -0.52411997
-1.86 3.3952904 -0.52411997
-1.8099999 3.4452903 -0.52411997
-1.91 3.7452903 -0.52411997
-1.86 3.5952902 -0.52411997
-1.8099999 3.7452903 -0.52411997
-1.71 3.4452903 -0.52411997
-1.61 3.4452903 -0.52411997
-1.66 3.4952903 -0.52411997
-1.76 3.5952902 -0.52411997
-1.76 3.7452903 -0.52411997
-1.66 3.6452904 -0.52411997
-2.3599999 3.8452902 -0.52411997
-2.26 3.7952902 -0.52411997
-2.26 3.8452902 -0.52411997
-2.21 3.7952902 -0.52411997
-2.1600001 3.7952902 -0.52411997
-2.1099999 3.8452902 -0.52411997
-2.1600001 3.8952904 -0.52411997
-2.0599999 3.8952904 -0.52411997
-2.01 3.8952904 -0.57411999
-2.01 3.9952903 -0.52411997
-2.3599999 4.2952905 -0.52411997
-2.26 4.3952904 -0.57411999
-2.1600001 4.3952904 -0.52411997
-2.1099999 4.4452901 -0.52411997
-2.01 4.4452901 -0.52411997
-1.96 3.7952902 -0.52411997
-1.96 3.8952904 -0.52411997
-1.91 3.8952904 -0.57411999
-1.86 3.7952902 -0.52411997
-1.86 3.9452903 -0.57411999
-1.8099999 3.9452903 -0.52411997
-1.96 4.0452905 -0.52411997
-1.91 3.9952903 -0.52411997
-1.8099999 3.9952903 -0.52411997
-1.86 4.0952902 -0.52411997
-1.8099999 4.1452904 -0.52411997
-1.76 3.7952902 -0.52411997
-1.76 3.9452903 -0.52411997
-1.66 3.7952902 -0.52411997
-1.66 3.9452903 -0.57411999
-1.76 3.9952903 -0.57411999
-1.71 3.9952903 -0.52411997
-1.71 4.0952902 -0.52411997
-1.61 3.9952903 -0.52411997
-1.61 4.0952902 -0.52411997
-1.91 4.4452901 -0.52411997
-1.8099999 4.4952903 -0.52411997
-1.76 4.1952901 -0.52411997
-1.61 4.2952905 -0.52411997
-1.71 4.4952903 -0.52411997
-1.51 2.9952903 -0.52411997
-1.5599999 3.0952902 -0.52411997
-1.46 2.9952903 -0.52411997
-1.41 3.0952902 -0.52411997
-1.5599999 3.1952903 -0.52411997
-1.5599999 3.2452903 -0.52411997
-1.51 3.1952903 -0.52411997
-1.5599999 3.3452902 -0.52411997
-1.46 3.1952903 -0.52411997
-1.46 3.2452903 -0.52411997
-1.36 2.9952903 -0.52411997
-1.36 3.1452904 -0.52411997
-1.3099999 3.0952902 -0.52411997
-1.21 2.9952903 -0.52411997
-1.21 3.0452902 -0.52411997
-1.26 3.0952902 -0.52411997
-1.21 3.0952902 -0.52411997
-1.36 3.1952903 -0.52411997
-1.36 3.2952902 -0.52411997
-1.26 3.1952903 -0.52411997
-1.26 3.2952902 -0.52411997
-1.21 3.2952902 -0.52411997
-1.5599999 3.5452902 -0.52411997
-1.46 3.3952904 -0.52411997
-1.46 3.4452903 -0.52411997
-1.46 3.5452902 -0.52411997
-1.41 3.4952903 -0.52411997
-1.5599999 3.6452904 -0.52411997
-1.51 3.6452904 -0.52411997
-1.51 3.7452903 -0.52411997
-1.41 3.6452904 -0.52411997
-1.46 3.5952902 -0.47411999
-1.46 3.7452903 -0.52411997
-1.41 3.6952903 -0.52411997
-1.36 3.4452903 -0.52411997
-1.36 3.5452902 -0.52411997
-1.26 3.4452903 -0.52411997
-1.26 3.5452902 -0.52411997
-1.36 3.5952902 -0.52411997
-1.3099999 3.5952902 -0.52411997
-1.3099999 3.6452904 -0.52411997
-1.3099999 3.5952902 -0.47411999
-1.26 3.6452904 -0.52411997
-1.21 3.6452904 -0.52411997
-1.21 3.6452904 -0.47411999
-1.26 3.7452903 -0.52411997
-1.21 3.6952903 -0.52411997
-1.16 3.0452902 -0.52411997
-1.11 2.9952903 -0.52411997
-1.11 3.0452902 -0.52411997
-1.16 3.0452902 -0.47411999
-1.16 3.0952902 -0.52411997
-1.0599999 2.9952903 -0.52411997
-1.0599999 3.0452902 -0.52411997
-1.01 2.9952903 -0.52411997
-1.0599999 2.9952903 -0.47411999
-1.16 3.1952903 -0.52411997
-1.16 3.2952902 -0.52411997
-1.16 3.3452902 -0.52411997
-1.11 3.3452902 -0.52411997
-1.0599999 3.1952903 -0.52411997
-1.0599999 3.2952902 -0.52411997
-1.01 3.3452902 -0.52411997
-0.95999998 2.9952903 -0.52411997
-0.90999997 2.9952903 -0.52411997
-0.95999998 3.0952902 -0.52411997
-0.95999998 3.1452904 -0.52411997
-0.85999995 2.9952903 -0.52411997
-0.81 2.9952903 -0.52411997
-0.85999995 3.0952902 -0.52411997
-0.81 3.0952902 -0.52411997
-0.81 3.1452904 -0.52411997
-0.95999998 3.1952903 -0.52411997
-0.95999998 3.2452903 -0.52411997
-0.90999997 3.3452902 -0.52411997
-0.85999995 3.1952903 -0.52411997
-0.85999995 3.2952902 -0.52411997
-1.16 3.5452902 -0.52411997
-1.11 3.4952903 -0.52411997
-1.0599999 3.3952904 -0.52411997
-1.0599999 3.4952903 -0.52411997
-1.16 3.5952902 -0.52411997
-1.16 3.6952903 -0.52411997
-1.16 3.7452903 -0.52411997
-1.0599999 3.5952902 -0.52411997
-1.01 3.5952902 -0.52411997
-1.0599999 3.5952902 -0.47411999
-1.0599999 3.6952903 -0.52411997
-1.0599999 3.7452903 -0.52411997
-0.95999998 3.3952904 -0.52411997
-0.95999998 3.4452903 -0.52411997
-0.90999997 3.5452902 -0.52411997
-0.95999998 3.5452902 -0.47411999
-0.85999995 3.4452903 -0.52411997
-0.85999995 3.4952903 -0.52411997
-0.81 3.4952903 -0.52411997
-0.85999995 3.4952903 -0.47411999
-0.95999998 3.5952902 -0.52411997
-0.95999998 3.6452904 -0.52411997
-0.95999998 3.6452904 -0.47411999
-0.95999998 3.6952903 -0.52411997
-0.85999995 3.6452904 -0.52411997
-0.81 3.5952902 -0.52411997
-0.81 3.6452904 -0.47411999
-0.85999995 3.7452903 -0.52411997
-0.81 3.6952903 -0.52411997
-1.5599999 3.7952902 -0.52411997
-1.51 3.9452903 -0.52411997
-1.46 3.7952902 -0.52411997
-1.41 3.7952902 -0.52411997
-1.46 3.9452903 -0.52411997
-1.41 3.9452903 -0.52411997
-1.5599999 3.9952903 -0.57411999
-1.5599999 4.0452905 -0.52411997
-1.51 4.1452904 -0.52411997
-1.46 4.0452905 -0.57411999
-1.46 4.0452905 -0.52411997
-1.36 3.7952902 -0.52411997
-1.36 3.9452903 -0.52411997
-1.26 3.8952904 -0.52411997
-1.21 3.9452903 -0.52411997
-1.36 3.9952903 -0.52411997
-1.36 4.0452905 -0.57411999
-1.36 4.0452905 -0.52411997
-1.3099999 4.0452905 -0.57411999
-1.21 3.9952903 -0.52411997
-1.21 4.0452905 -0.52411997
-1.51 4.2952905 -0.52411997
-1.41 4.1952901 -0.52411997
-1.41 4.3452902 -0.52411997
-1.5599999 4.4452901 -0.52411997
-1.41 4.4952903 -0.52411997
-1.36 4.1952901 -0.52411997
-1.26 4.2452903 -0.52411997
-1.3099999 4.3952904 -0.52411997
-1.3099999 4.4952903 -0.52411997
-1.21 4.4452901 -0.52411997
-1.21 4.4952903 -0.52411997
-1.16 3.8952904 -0.52411997
-1.11 3.9452903 -0.52411997
-1.0599999 3.7952902 -0.52411997
-1.0599999 3.9452903 -0.52411997
-1.11 3.9952903 -0.52411997
-1.11 4.0952902 -0.52411997
-1.0599999 4.0952902 -0.52411997
-0.95999998 3.7952902 -0.52411997
-0.95999998 3.8952904 -0.47411999
-0.85999995 3.8452902 -0.47411999
-0.85999995 3.8952904 -0.52411997
-0.81 3.9452903 -0.52411997
-0.95999998 4.0452905 -0.52411997
-0.85999995 4.0452905 -0.47411999
-0.81 3.9952903 -0.47411999
-1.16 4.1952901 -0.52411997
-1.0599999 4.2452903 -0.52411997
-1.01 4.1952901 -0.47411999
-1.01 4.2952905 -0.57411999
-1.16 4.4452901 -0.52411997
-1.11 4.4452901 -0.52411997
-1.11 4.4952903 -0.52411997
-1.0599999 4.4452901 -0.47411999
-1.01 4.4952903 -0.52411997
-0.95999998 4.2452903 -0.47411999
-0.90999997 4.2452903 -0.47411999
-0.95999998 4.3452902 -0.57411999
-0.81 4.2452903 -0.47411999
-0.90999997 4.5452905 -0.72412002
-0.90999997 4.4452901 -0.52411997
-0.90999997 4.4952903 -0.47411999
-0.85999995 4.4452901 -0.57411999
-0.81 4.4952903 -0.47411999
-8.96 4.5952902 -0.12411999
-8.96 7.7452903 -0.024119986
-8.96 7.7452903 0.52588004
-8.96 7.7452903 0.57588005
-8.8599997 7.2952905 1.02588
-8.5100002 5.3452902 -0.52411997
-8.5100002 5.1952901 -0.37412
-8.46 5.2452903 -0.37412
-8.5100002 5.2452903 -0.12411999
-8.5100002 5.2452903 -0.074119985
-8.5100002 5.2952905 -0.17411999
-8.5100002 5.3452902 -0.12411999
-8.71 4.5952902 0.075880013
-8.71 4.5952902 0.12588002
-8.71 4.5952902 0.32588002
-8.71 4.5952902 0.62588
-8.5600004 5.3452902 0.025880015
-8.5100002 5.2952905 0.12588002
-8.5600004 5.2952905 0.37588003
-8.5600004 5.2452903 0.57588005
-8.5600004 5.3452902 0.62588
-8.5100002 5.4452901 -0.62412
-8.5100002 5.4952903 -0.67412001
-8.5100002 5.3952904 -0.47411999
-8.46 5.3952904 -0.57411999
-8.5100002 5.6452904 -0.52411997
-8.5600004 5.4452901 -0.37412
-8.5100002 5.4952903 -0.12411999
-8.5600004 5.7452903 -0.32411999
-8.5600004 5.6952901 -0.27412
-8.6099997 5.8452902 -0.42411998
-8.46 5.8952904 -0.52411997
-8.4099998 5.8952904 -0.52411997
-8.4099998 5.9452901 -0.42411998
-8.5600004 5.8952904 -0.37412
-8.46 5.9452901 -0.32411999
-8.4099998 5.9452901 -0.27412
-8.5100002 5.9452901 -0.12411999
-8.3599997 5.8952904 -0.62412
-8.3599997 5.9452901 -0.62412
-8.3100004 5.9452901 -0.42411998
-8.3599997 5.9452901 -0.22411999
-8.6099997 5.6452904 0.12588002
-8.6099997 5.6952901 0.17588001
-8.6099997 5.7452903 0.22588001
-8.5600004 5.3952904 0.075880013
-8.5100002 5.3952904 0.12588002
-8.5600004 5.4952903 0.17588001
-8.5100002 5.4452901 0.27588001
-8.5600004 5.4952903 0.22588001
-8.5600004 5.5452905 0.37588003
-8.5100002 5.5452905 0.37588003
-8.6099997 5.5952902 0.72588003
-8.6099997 5.6452904 0.77588004
-8.5600004 5.4452901 0.42588001
-8.5600004 5.4452901 0.57588005
-8.5600004 5.5452905 0.47588003
-8.5600004 5.4452901 0.72588003
-8.5600004 5.5452905 0.62588
-8.5100002 5.5952902 0.67588001
-8.6099997 5.8452902 0.22588001
-8.6099997 5.7952905 0.37588003
-8.46 5.9452901 0.075880013
-8.46 5.8952904 0.12588002
-8.5600004 5.7952905 0.37588003
-8.46 5.8952904 0.22588001
-8.46 5.8952904 0.27588001
-8.4099998 5.8952904 0.27588001
-8.4099998 5.9952903 0.025880015
-8.6599998 5.8452902 0.47588003
-8.6099997 5.7952905 0.52588004
-8.6599998 5.8452902 0.62588
-8.5600004 5.8952904 0.52588004
-8.4099998 5.9452901 0.42588001
-8.4099998 5.9452901 0.47588003
-8.5100002 5.8952904 0.72588003
-8.46 5.8952904 0.62588
-8.46 5.9452901 0.77588004
-8.5100002 6.1452904 0.52588004
-8.46 6.0952902 0.42588001
-8.46 6.1452904 0.52588004
-8.3599997 5.9452901 0.17588001
-8.3599997 5.9452901 0.42588001
-7.46 4.5952902 -0.57411999
-7.2600002 4.5952902 -0.62412
-7.3600001 4.5952902 -0.52411997
-7.3099999 4.5952902 -0.52411997
-7.2600002 4.5952902 -0.42411998
-7.3600001 4.5952902 -0.32411999
-7.3600001 4.5952902 -0.22411999
-7.21 4.5952902 -0.32411999
-7.21 4.5952902 -0.27412
-7.21 4.5952902 -0.22411999
-7.3099999 4.5952902 -0.12411999
-7.3600001 4.5952902 -0.024119986
-7.3099999 4.5952902 -0.024119986
-7.21 4.5952902 -0.17411999
-7.2600002 4.5952902 -0.074119985
-7.21 4.5952902 -0.074119985
-7.5100002 5.0452905 -0.62412
-7.3600001 5.1452904 -0.57411999
-7.8600001 4.5952902 0.075880013
-7.8600001 4.5952902 0.22588001
-7.8099999 4.5952902 0.32588002
-7.7600002 4.5952902 0.57588005
-7.6100001 4.5952902 0.62588
-7.6100001 4.5952902 0.77588004
-7.5599999 4.5952902 0.12588002
-7.5100002 4.5952902 0.17588001
-7.4099998 4.5952902 0.17588001
-7.5100002 4.5952902 0.37588003
-7.46 4.5952902 0.32588002
-7.4099998 4.5952902 0.37588003
-7.3099999 4.5952902 0.025880015
-7.3600001 4.5952902 0.12588002
-7.3099999 4.5952902 0.12588002
-7.21 4.5952902 0.075880013
-7.2600002 4.5952902 0.17588001
-7.2600002 4.6452904 0.17588001
-7.21 4.5952902 0.17588001
-7.3600001 4.5952902 0.27588001
-7.3099999 4.5952902 0.22588001
-7.3600001 4.5952902 0.37588003
-7.3099999 4.5952902 0.32588002
-7.3099999 4.5952902 0.37588003
-7.2600002 4.5952902 0.37588003
-7.21 4.5952902 0.32588002
-7.5100002 4.5952902 0.57588005
-7.46 4.5952902 0.52588004
-7.46 4.5952902 0.57588005
-7.46 4.6452904 0.52588004
-7.4099998 4.5952902 0.57588005
-7.46 4.5952902 0.67588001
-7.4099998 4.5952902 0.62588
-7.4099998 4.5952902 0.72588003
-7.3099999 4.5952902 0.47588003
-7.2600002 4.5952902 0.47588003
-7.21 4.5952902 0.42588001
-7.2600002 4.5952902 0.52588004
-7.2600002 4.5952902 0.57588005
-7.21 4.5952902 0.62588
-8.5100002 5.2452903 0.87588
-8.6099997 5.4952903 0.87588
-8.6099997 5.6452904 1.0758801
-8.6099997 5.6952901 1.12588
-7.3600001 4.5952902 0.87588
-7.21 4.5952902 0.87588
-8.5100002 6.1952901 -0.37412
-8.5100002 6.2452903 -0.12411999
-8.5600004 6.9452901 -0.12411999
-8.6099997 6.3952904 0.12588002
-8.6599998 6.3952904 0.77588004
-8.4099998 6.1952901 0.62588
-8.6099997 6.9452901 0.32588002
-8.6099997 6.7952905 0.47588003
-8.7600002 6.9952903 -0.42411998
-8.5100002 7.0452905 -0.42411998
-8.71 6.9952903 -0.32411999
-8.7600002 6.9952903 -0.27412
-8.71 6.9952903 -0.024119986
-8.5600004 7.0452905 -0.22411999
-8.5100002 7.0452905 -0.27412
-8.5100002 7.0952902 -0.32411999
-8.5600004 7.0452905 -0.17411999
-8.6099997 6.9952903 0.17588001
-8.6099997 6.9952903 0.32588002
-8.5600004 7.0952902 0.22588001
-8.6099997 6.9952903 0.52588004
-8.6099997 7.0452905 0.62588
-8.6099997 7.0452905 0.72588003
-8.6599998 6.1952901 1.12588
-8.7600002 7.0452905 0.82588005
-8.9099998 7.7952905 0.17588001
-8.9099998 7.7952905 0.37588003
-8.8599997 7.7952905 0.32588002
-8.8599997 7.7952905 0.57588005
-8.96 7.7952905 0.87588
-8.9099998 7.7952905 1.0758801
-6.0599999 4.8952904 -0.87412
-5.9099998 4.8952904 -0.87412
-5.8600001 4.9452901 -0.87412
-5.71 4.8952904 -0.82411999
-5.6599998 4.9452901 -0.87412
-5.5100002 4.9452901 -0.82411999
-5.4099998 4.9952903 -0.82411999
-5.3600001 4.9952903 -0.82411999
-5.21 4.9952903 -0.82411999
-4.71 5.1452904 -0.87412
-4.1100001 5.1952901 -0.82411999
-4.0599999 5.2452903 -0.87412
-7.0100002 4.5952902 -0.62412
-7.1100001 4.5952902 -0.57411999
-7.1100001 4.5952902 -0.52411997
-7.0599999 4.5952902 -0.52411997
-7.0599999 4.6452904 -0.42411998
-6.96 4.6952901 -0.62412
-6.96 4.6452904 -0.57411999
-7.1100001 4.5952902 -0.32411999
-7.1599998 4.5952902 -0.27412
-7.1599998 4.5952902 -0.22411999
-7.1599998 4.5952902 -0.12411999
-7.1100001 4.5952902 -0.12411999
-7.1599998 4.5952902 -0.024119986
-7.1100001 4.5952902 -0.024119986
-7.0599999 4.5952902 -0.17411999
-7.0599999 4.6452904 -0.17411999
-7.0599999 4.5952902 -0.074119985
-6.7600002 4.6952901 -0.62412
-6.6100001 4.7452903 -0.62412
-6.71 4.7452903 -0.57411999
-6.71 4.7452903 -0.52411997
-6.7600002 4.6952901 -0.42411998
-6.6599998 4.6452904 -0.57411999
-6.6599998 4.7452903 -0.52411997
-6.6100001 4.7452903 -0.52411997
-6.6599998 4.6952901 -0.47411999
-6.6599998 4.7452903 -0.42411998
-6.6100001 4.7452903 -0.42411998
-6.5599999 4.7452903 -0.57411999
-6.5100002 4.7452903 -0.57411999
-6.5100002 4.7452903 -0.47411999
-6.46 4.7452903 -0.47411999
-6.46 4.7452903 -0.42411998
-6.5100002 4.7952905 -0.52411997
-6.46 4.7952905 -0.57411999
-6.46 4.7952905 -0.52411997
-6.46 4.7952905 -0.47411999
-6.4099998 4.7952905 -0.42411998
-6.71 4.6952901 -0.37412
-6.6599998 4.7452903 -0.32411999
-6.6599998 4.7452903 -0.27412
-6.6599998 4.7452903 -0.22411999
-6.7600002 4.6952901 -0.12411999
-6.71 4.6952901 -0.12411999
-6.71 4.6952901 -0.074119985
-6.6599998 4.6952901 -0.17411999
-6.6599998 4.7452903 -0.17411999
-6.6599998 4.7452903 -0.12411999
-6.6599998 4.7452903 -0.024119986
-6.6100001 4.7952905 -0.22411999
-6.5599999 4.7452903 -0.37412
-6.5599999 4.7452903 -0.32411999
-6.5100002 4.7452903 -0.37412
-6.5100002 4.7452903 -0.32411999
-6.5100002 4.7452903 -0.22411999
-6.5599999 4.7452903 -0.12411999
-6.5100002 4.7452903 -0.17411999
-6.5100002 4.7452903 -0.12411999
-6.5599999 4.7452903 -0.074119985
-6.46 4.7452903 -0.074119985
-6.5100002 4.7952905 -0.27412
-6.46 4.7952905 -0.32411999
-6.4099998 4.7952905 -0.32411999
-6.46 4.7952905 -0.27412
-6.4099998 4.7952905 -0.22411999
-6.5599999 4.7952905 -0.074119985
-6.4099998 4.7952905 -0.17411999
-6.4099998 4.7952905 -0.12411999
-6.46 4.7952905 -0.024119986
-7.1100001 4.5952902 0.025880015
-7.1100001 4.5952902 0.075880013
-7.1599998 4.5952902 0.17588001
-7.1100001 4.5952902 0.12588002
-7.1100001 4.5952902 0.17588001
-7.0599999 4.5952902 0.025880015
-7.0599999 4.5952902 0.17588001
-7.0599999 4.6452904 0.17588001
-7.1599998 4.5952902 0.27588001
-7.1599998 4.6452904 0.27588001
-7.1100001 4.5952902 0.22588001
-7.1100001 4.5952902 0.27588001
-7.1599998 4.5952902 0.32588002
-7.1599998 4.5952902 0.37588003
-7.1100001 4.5952902 0.32588002
-7.0599999 4.6452904 0.32588002
-7.1100001 4.6452904 0.42588001
-7.1100001 4.6452904 0.47588003
-7.1599998 4.5952902 0.52588004
-7.1599998 4.5952902 0.57588005
-7.1100001 4.6452904 0.52588004
-7.1599998 4.5952902 0.62588
-7.1599998 4.5952902 0.72588003
-6.7600002 4.6952901 0.025880015
-6.71 4.7452903 0.075880013
-6.7600002 4.7452903 0.17588001
-6.71 4.6952901 0.12588002
-6.71 4.7452903 0.17588001
-6.6599998 4.7452903 0.025880015
-6.6100001 4.7452903 0.075880013
-6.6599998 4.7452903 0.12588002
-6.6599998 4.7452903 0.17588001
-6.6100001 4.7452903 0.12588002
-6.71 4.7452903 0.22588001
-6.6599998 4.7452903 0.27588001
-6.6100001 4.6952901 0.27588001
-6.6100001 4.7452903 0.22588001
-6.6599998 4.7452903 0.37588003
-6.6100001 4.7452903 0.32588002
-6.6100001 4.7452903 0.37588003
-6.5100002 4.7452903 0.025880015
-6.5100002 4.7452903 0.075880013
-6.5599999 4.7452903 0.17588001
-6.5100002 4.7452903 0.12588002
-6.5100002 4.7452903 0.17588001
-6.46 4.7452903 0.12588002
-6.5599999 4.7452903 0.37588003
-6.46 4.7452903 0.22588001
-6.5100002 4.7952905 0.12588002
-6.5100002 4.7952905 0.17588001
-6.4099998 4.7952905 0.025880015
-6.4099998 4.7952905 0.075880013
-6.4099998 4.7952905 0.12588002
-6.5100002 4.7952905 0.22588001
-6.5100002 4.7952905 0.27588001
-6.5599999 4.7952905 0.32588002
-6.46 4.7952905 0.22588001
-6.46 4.7952905 0.27588001
-6.46 4.7952905 0.37588003
-6.46 4.8452902 0.32588002
-6.7600002 4.6952901 0.42588001
-6.7600002 4.7452903 0.47588003
-6.7600002 4.6952901 0.57588005
-6.7600002 4.7452903 0.52588004
-6.6599998 4.7452903 0.47588003
-6.6100001 4.6952901 0.42588001
-6.6100001 4.7452903 0.42588001
-6.6599998 4.7452903 0.57588005
-6.71 4.6952901 0.62588
-6.71 4.7452903 0.62588
-6.6100001 4.7452903 0.62588
-6.6100001 4.7452903 0.67588001
-6.7600002 4.7952905 0.47588003
-6.5599999 4.7452903 0.42588001
-6.5100002 4.7452903 0.47588003
-6.5599999 4.7452903 0.52588004
-6.5100002 4.7452903 0.52588004
-6.4099998 4.7452903 0.47588003
-6.46 4.7452903 0.57588005
-6.5599999 4.7952905 0.42588001
-6.5100002 4.7952905 0.47588003
-6.5100002 4.7952905 0.57588005
-6.46 4.7952905 0.57588005
-6.46 4.7952905 0.67588001
-6.3600001 4.7452903 -0.47411999
-6.3600001 4.7952905 -0.52411997
-6.3099999 4.7952905 -0.52411997
-6.3099999 4.7952905 -0.47411999
-6.3099999 4.8452902 -0.42411998
-6.2600002 4.7952905 -0.52411997
-6.2600002 4.8452902 -0.57411999
-6.2600002 4.7952905 -0.47411999
-6.2600002 4.8452902 -0.42411998
-6.21 4.7952905 -0.47411999
-6.21 4.7952905 -0.42411998
-6.1599998 4.6452904 -0.62412
-6.0599999 4.7452903 -0.62412
-6.0100002 4.7452903 -0.62412
-6.1100001 4.8452902 -0.52411997
-6.1100001 4.8452902 -0.47411999
-6.0599999 4.8452902 -0.52411997
-6.0599999 4.8452902 -0.47411999
-6.0599999 4.8452902 -0.42411998
-6.3600001 4.7952905 -0.37412
-6.3099999 4.7952905 -0.37412
-6.3099999 4.7952905 -0.32411999
-6.3600001 4.7952905 -0.27412
-6.3600001 4.7952905 -0.22411999
-6.3600001 4.8452902 -0.27412
-6.21 4.8452902 -0.37412
-6.2600002 4.7952905 -0.27412
-6.2600002 4.7952905 -0.22411999
-6.21 4.8452902 -0.22411999
-6.3600001 4.7952905 -0.12411999
-6.3099999 4.7952905 -0.17411999
-6.3600001 4.7952905 -0.074119985
-6.2600002 4.8452902 -0.12411999
-6.21 4.8452902 -0.12411999
-6.2600002 4.7952905 -0.024119986
-6.21 4.7952905 -0.024119986
-6.21 4.8452902 -0.074119985
-6.1599998 4.8452902 -0.37412
-6.1599998 4.8452902 -0.32411999
-6.1599998 4.8452902 -0.22411999
-6.0100002 4.8452902 -0.37412
-6.0599999 4.8452902 -0.27412
-6.0599999 4.8452902 -0.22411999
-6.1599998 4.7952905 -0.17411999
-6.1599998 4.7952905 -0.12411999
-6.1599998 4.8452902 -0.12411999
-6.1100001 4.8452902 -0.024119986
-6.0100002 4.8452902 -0.12411999
-6.0599999 4.8452902 -0.074119985
-6.0599999 4.8452902 -0.024119986
-5.96 4.7952905 -0.62412
-5.8099999 4.8452902 -0.62412
-5.96 4.8452902 -0.52411997
-5.96 4.8452902 -0.47411999
-5.9099998 4.8452902 -0.42411998
-5.9099998 4.8952904 -0.52411997
-5.8600001 4.8452902 -0.47411999
-5.8600001 4.8952904 -0.47411999
-5.8099999 4.8952904 -0.47411999
-5.6100001 4.9452901 -0.77411997
-5.71 4.8952904 -0.52411997
-5.7600002 4.8952904 -0.42411998
-5.71 4.8952904 -0.47411999
-5.6100001 4.8952904 -0.57411999
-5.6599998 4.8952904 -0.42411998
-5.6100001 4.9452901 -0.47411999
-5.96 4.8452902 -0.32411999
-5.9099998 4.8452902 -0.37412
-5.96 4.8952904 -0.22411999
-5.9099998 4.8952904 -0.22411999
-5.8099999 4.8952904 -0.32411999
-5.8600001 4.8952904 -0.27412
-5.8600001 4.8952904 -0.22411999
-5.8099999 4.8952904 -0.27412
-5.96 4.8452902 -0.17411999
-5.96 4.8452902 -0.12411999
-5.96 4.8452902 -0.074119985
-5.9099998 4.8452902 -0.074119985
-5.9099998 4.8952904 -0.024119986
-5.8099999 4.8952904 -0.12411999
-5.8099999 4.9452901 -0.17411999
-5.8099999 4.8952904 -0.074119985
-5.8099999 4.8952904 -0.024119986
-5.7600002 4.8952904 -0.22411999
-5.71 4.8952904 -0.27412
-5.71 4.8952904 -0.22411999
-5.6599998 4.8952904 -0.37412
-5.6599998 4.9452901 -0.32411999
-5.6599998 4.9452901 -0.27412
-5.6599998 4.9452901 -0.22411999
-5.6100001 4.9452901 -0.27412
-5.7600002 4.8952904 -0.12411999
-5.71 4.9452901 -0.12411999
-5.6599998 4.8952904 -0.12411999
-5.6100001 4.9452901 -0.12411999
-5.6599998 4.8952904 -0.074119985
-5.6100001 4.9452901 -0.074119985
