# .PCD v0.7 - Point Cloud Data file format
VERSION 0.7
FIELDS x y z
SIZE 4 4 4
TYPE F F F
COUNT 1 1 1
WIDTH 1456
HEIGHT 1
VIEWPOINT 0 0 0 1 0 0 0
POINTS 1456
DATA ascii
-3.1139994 1.6822906 0.30687997
-3.0139995 1.5822905 0.15687998
-2.9639995 1.5822905 0.15687998
-2.9639995 1.6322905 0.20687997
-3.0139995 1.6322905 0.25687999
-3.0139995 1.6322905 0.30687997
-2.9639995 1.5822905 0.25687999
-2.9639995 1.6322905 0.25687999
-2.9639995 1.6322905 0.30687997
-3.0139995 1.7322905 0.15687998
-3.0139995 1.7322905 0.20687997
-2.9639995 1.6822906 0.20687997
-2.9639995 1.7322905 0.15687998
-2.9639995 1.7322905 0.20687997
-3.0139995 1.6822906 0.25687999
-3.0139995 1.7322905 0.25687999
-2.9639995 1.6822906 0.30687997
-3.0639994 1.6322905 0.45687997
-3.0639994 1.6822906 0.45687997
-2.9639995 1.5822905 0.40687999
-2.9639995 1.6322905 0.35687998
-2.9639995 1.5822905 0.45687997
-2.9639995 1.6322905 0.50687999
-3.0139995 1.6822906 0.35687998
-2.9639995 1.6822906 0.35687998
-2.9639995 1.3822905 0.55688
-3.0139995 1.4822905 0.60688001
-3.0139995 1.5322906 0.55688
-2.9639995 1.4822905 0.60688001
-2.9639995 1.6822906 0.60688001
-2.8639994 1.2822905 0.40687999
-2.7139995 1.2322905 0.20687997
-2.8639994 1.3822905 0.15687998
-2.8639994 1.4322906 0.15687998
-2.8639994 1.4322906 0.20687997
-2.9139993 1.4322906 0.25687999
-2.9139993 1.4322906 0.30687997
-2.9139993 1.4822905 0.20687997
-2.8639994 1.4822905 0.20687997
-2.8639994 1.5322906 0.15687998
-2.8639994 1.5322906 0.20687997
-2.9139993 1.4822905 0.25687999
-2.9139993 1.5322906 0.25687999
-2.8639994 1.4822905 0.25687999
-2.8639994 1.5322906 0.25687999
-2.8639994 1.5322906 0.30687997
-2.8139994 1.4322906 0.20687997
-2.7639995 1.3822905 0.25687999
-2.8139994 1.4822905 0.20687997
-2.8139994 1.5322906 0.15687998
-2.8139994 1.5322906 0.20687997
-2.7639995 1.5322906 0.15687998
-2.8139994 1.4822905 0.25687999
-2.8139994 1.4822905 0.30687997
-2.8139994 1.5322906 0.25687999
-2.8139994 1.5322906 0.30687997
-2.7639995 1.4822905 0.25687999
-2.9139993 1.3822905 0.35687998
-2.9139993 1.3822905 0.40687999
-2.8639994 1.3822905 0.40687999
-2.8639994 1.4322906 0.35687998
-2.9139993 1.4322906 0.45687997
-2.9139993 1.4822905 0.35687998
-2.8639994 1.4822905 0.35687998
-2.8639994 1.5322906 0.40687999
-2.9139993 1.4822905 0.45687997
-2.7639995 1.3822905 0.35687998
-2.7639995 1.4322906 0.35687998
-2.8139994 1.5322906 0.35687998
-2.8139994 1.5322906 0.40687999
-2.7639995 1.4822905 0.35687998
-2.8139994 1.5322906 0.45687997
-2.8139994 1.5322906 0.50687999
-2.9139993 1.5822905 0.20687997
-2.8639994 1.5822905 0.15687998
-2.8639994 1.6322905 0.15687998
-2.8639994 1.6322905 0.20687997
-2.9139993 1.6322905 0.25687999
-2.8639994 1.6322905 0.25687999
-2.9139993 1.6822906 0.20687997
-2.9139993 1.7322905 0.15687998
-2.8639994 1.6822906 0.20687997
-2.8639994 1.7322905 0.20687997
-2.9139993 1.6822906 0.25687999
-2.9139993 1.7322905 0.25687999
-2.8639994 1.6822906 0.30687997
-2.8139994 1.5822905 0.15687998
-2.8139994 1.5822905 0.20687997
-2.8139994 1.6322905 0.20687997
-2.8139994 1.5822905 0.25687999
-2.8139994 1.5822905 0.30687997
-2.8139994 1.6322905 0.25687999
-2.8139994 1.6322905 0.30687997
-2.7639995 1.5822905 0.25687999
-2.8139994 1.7322905 0.15687998
-2.7639995 1.7322905 0.20687997
-2.8139994 1.6822906 0.25687999
-2.8139994 1.6822906 0.30687997
-2.8639994 1.6322905 0.35687998
-2.8639994 1.6322905 0.40687999
-2.9139993 1.6322905 0.50687999
-2.8639994 1.5822905 0.50687999
-2.8639994 1.6322905 0.45687997
-2.8639994 1.6322905 0.50687999
-2.9139993 1.6822906 0.35687998
-2.8639994 1.6822906 0.35687998
-2.8639994 1.7322905 0.35687998
-2.8639994 1.7322905 0.40687999
-2.8639994 1.6822906 0.50687999
-2.8639994 1.7322905 0.50687999
-2.8139994 1.5822905 0.35687998
-2.8139994 1.6322905 0.35687998
-2.7639995 1.5822905 0.35687998
-2.7639995 1.5822905 0.40687999
-2.7639995 1.6322905 0.35687998
-2.8139994 1.6322905 0.50687999
-2.7639995 1.6822906 0.40687999
-2.8139994 1.7322905 0.50687999
-2.7639995 1.6822906 0.45687997
-2.7639995 1.6822906 0.50687999
-2.7139995 1.3822905 0.15687998
-2.6639993 1.4822905 0.25687999
-2.5639994 1.5322906 0.15687998
-2.6139994 1.4822905 0.25687999
-2.5639994 1.4822905 0.25687999
-2.7139995 1.5322906 0.35687998
-2.7139995 1.6822906 0.30687997
-2.5639994 1.5822905 0.20687997
-2.6639993 1.5822905 0.35687998
-2.6639993 1.6822906 0.50687999
-2.6139994 1.6322905 0.40687999
-2.9139993 1.5322906 0.60688001
-2.8139994 1.3822905 0.55688
-2.8139994 1.4322906 0.70687997
-2.8139994 1.5322906 0.70687997
-2.8139994 1.4822905 0.85688001
-2.9139993 1.5822905 0.55688
-2.9139993 1.6322905 0.60688001
-2.9139993 1.6322905 0.70687997
-2.9139993 1.6822906 0.60688001
-2.8139994 1.5822905 0.55688
-2.8139994 1.6322905 0.55688
-2.8639994 1.5822905 0.80688
-2.8139994 1.6322905 0.80688
-2.8139994 1.6322905 0.90687996
-2.7139995 1.6322905 0.60688001
-2.5639994 1.5822905 0.55688
-2.8639994 1.5322906 0.95687997
-4.1139994 1.7822906 -0.54312003
-4.1139994 1.7822906 -0.49312004
-4.1139994 1.8322905 -0.49312004
-4.0639997 1.8322905 -0.54312003
-4.1139994 1.9322906 -0.49312004
-4.0639997 1.8822905 -0.49312004
-4.0139995 1.7822906 -0.54312003
-3.9639995 1.7822906 -0.54312003
-3.9639995 1.8822905 -0.54312003
-4.1139994 1.7822906 -0.44312003
-4.0639997 1.7822906 -0.44312003
-4.1139994 1.8822905 -0.44312003
-4.0639997 1.9322906 -0.44312003
-4.0139995 1.7822906 -0.44312003
-4.0139995 1.7822906 -0.39312002
-4.0139995 1.8322905 -0.44312003
-3.9639995 1.7822906 -0.44312003
-3.9639995 1.8322905 -0.39312002
-4.0139995 1.8822905 -0.44312003
-4.0139995 1.9322906 -0.39312002
-3.9639995 1.8822905 -0.44312003
-3.9639995 1.9322906 -0.44312003
-3.9639995 1.9322906 -0.34312004
-4.0639997 1.9822905 -0.49312004
-4.1139994 2.0822904 -0.49312004
-4.0639997 2.0822904 -0.49312004
-4.0139995 1.9822905 -0.54312003
-4.0139995 1.9822905 -0.49312004
-3.9639995 2.0322905 -0.49312004
-4.0139995 2.0822904 -0.54312003
-4.0139995 2.1322906 -0.49312004
-4.1139994 1.9822905 -0.44312003
-4.1139994 1.9822905 -0.39312002
-4.1139994 2.0322905 -0.44312003
-4.0639997 1.9822905 -0.44312003
-4.0639997 2.0322905 -0.44312003
-4.0639997 2.0322905 -0.39312002
-4.1139994 2.0822904 -0.44312003
-4.1139994 2.1322906 -0.44312003
-4.1139994 2.1322906 -0.39312002
-4.0639997 2.0822904 -0.39312002
-4.1139994 2.1322906 -0.34312004
-4.0139995 1.9822905 -0.44312003
-3.9639995 1.9822905 -0.44312003
-3.9639995 2.0322905 -0.44312003
-3.9639995 2.0322905 -0.39312002
-4.0139995 2.0822904 -0.44312003
-4.0139995 2.0822904 -0.39312002
-4.0139995 2.1322906 -0.44312003
-4.0139995 2.1322906 -0.39312002
-3.9639995 2.0822904 -0.44312003
-3.9639995 2.1322906 -0.39312002
-3.9139996 1.7822906 -0.54312003
-3.9139996 1.8322905 -0.54312003
-3.9139996 1.8822905 -0.59312004
-3.9139996 1.8822905 -0.54312003
-3.8139994 1.7822906 -0.59312004
-3.8139994 1.7822906 -0.54312003
-3.7639995 1.7822906 -0.49312004
-3.8139994 1.8822905 -0.59312004
-3.8139994 1.8822905 -0.54312003
-3.8139994 1.8822905 -0.49312004
-3.9139996 1.7822906 -0.44312003
-3.9139996 1.7822906 -0.39312002
-3.8639994 1.8322905 -0.39312002
-3.9139996 1.8822905 -0.44312003
-3.8639994 1.8822905 -0.44312003
-3.8639994 1.9322906 -0.44312003
-3.8639994 1.9322906 -0.39312002
-3.8139994 1.7822906 -0.44312003
-3.8139994 1.7822906 -0.39312002
-3.7639995 1.7822906 -0.44312003
-3.7639995 1.7822906 -0.39312002
-3.7639995 1.7822906 -0.34312004
-3.8139994 1.8822905 -0.44312003
-3.8139994 1.9322906 -0.39312002
-3.7639995 1.8822905 -0.44312003
-3.7639995 1.9322906 -0.44312003
-3.9139996 1.9822905 -0.59312004
-3.9139996 1.9822905 -0.49312004
-3.8639994 1.9822905 -0.54312003
-3.8639994 2.1322906 -0.59312004
-3.9139996 2.0822904 -0.54312003
-3.9139996 2.1322906 -0.49312004
-3.8639994 2.0822904 -0.54312003
-3.7639995 1.9822905 -0.59312004
-3.8139994 1.9822905 -0.49312004
-3.8139994 2.0322905 -0.49312004
-3.7639995 1.9822905 -0.54312003
-3.7639995 1.9822905 -0.49312004
-3.8139994 2.0822904 -0.49312004
-3.8139994 2.1322906 -0.49312004
-3.7639995 2.0822904 -0.54312003
-3.9139996 1.9822905 -0.44312003
-3.9139996 2.0322905 -0.39312002
-3.8639994 1.9822905 -0.44312003
-3.9139996 2.0822904 -0.44312003
-3.9139996 2.0822904 -0.39312002
-3.9139996 2.1322906 -0.44312003
-3.8639994 2.0822904 -0.44312003
-3.7639995 1.9822905 -0.39312002
-3.7639995 2.0322905 -0.44312003
-3.7639995 2.0322905 -0.39312002
-3.8139994 2.1322906 -0.44312003
-3.7639995 2.0822904 -0.44312003
-4.1139994 2.2322905 -0.59312004
-4.1139994 2.1822906 -0.49312004
-4.1139994 2.2322905 -0.49312004
-4.0639997 2.1822906 -0.49312004
-4.0639997 2.2322905 -0.49312004
-4.1139994 2.2822905 -0.49312004
-4.0639997 2.2822905 -0.54312003
-4.0639997 2.2822905 -0.49312004
-4.0639997 2.3322906 -0.54312003
-4.0139995 2.2322905 -0.59312004
-4.0139995 2.1822906 -0.54312003
-3.9639995 2.1822906 -0.49312004
-4.0139995 2.2822905 -0.49312004
-3.9639995 2.2822905 -0.54312003
-3.9639995 2.2822905 -0.49312004
-3.9639995 2.3322906 -0.49312004
-4.1139994 2.1822906 -0.44312003
-4.1139994 2.2322905 -0.39312002
-4.0639997 2.1822906 -0.44312003
-4.0639997 2.1822906 -0.39312002
-4.0639997 2.2322905 -0.39312002
-4.1139994 2.2822905 -0.39312002
-4.1139994 2.3322906 -0.44312003
-4.1139994 2.3322906 -0.39312002
-4.0639997 2.3322906 -0.44312003
-4.0639997 2.3322906 -0.39312002
-4.1139994 2.3322906 -0.34312004
-4.0139995 2.1822906 -0.44312003
-4.0139995 2.2322905 -0.44312003
-3.9639995 2.1822906 -0.39312002
-3.9639995 2.2322905 -0.44312003
-3.9639995 2.2322905 -0.39312002
-4.0139995 2.3322906 -0.44312003
-4.0139995 2.3322906 -0.39312002
-3.9639995 2.2822905 -0.39312002
-3.9639995 2.3322906 -0.44312003
-3.9639995 2.3322906 -0.39312002
-4.1139994 2.4322906 -0.59312004
-4.1139994 2.3822906 -0.54312003
-4.1139994 2.3822906 -0.49312004
-4.1139994 2.5322905 -0.59312004
-4.1139994 2.4822905 -0.49312004
-4.0639997 2.4822905 -0.49312004
-4.0139995 2.3822906 -0.54312003
-4.0139995 2.3822906 -0.49312004
-4.0139995 2.4322906 -0.49312004
-4.0139995 2.4822905 -0.54312003
-4.0139995 2.4822905 -0.49312004
-3.9639995 2.4822905 -0.49312004
-4.1139994 2.4322906 -0.44312003
-4.0639997 2.3822906 -0.44312003
-4.0639997 2.3822906 -0.39312002
-4.0639997 2.4322906 -0.39312002
-4.1139994 2.4822905 -0.44312003
-4.1139994 2.4822905 -0.39312002
-4.1139994 2.5322905 -0.39312002
-4.0639997 2.4822905 -0.39312002
-4.0139995 2.3822906 -0.39312002
-4.0139995 2.4322906 -0.44312003
-4.0139995 2.4322906 -0.39312002
-3.9639995 2.3822906 -0.44312003
-3.9639995 2.3822906 -0.39312002
-3.9639995 2.4322906 -0.44312003
-3.9639995 2.4322906 -0.39312002
-4.0139995 2.4822905 -0.39312002
-4.0139995 2.5322905 -0.39312002
-3.9139996 2.2322905 -0.59312004
-3.9139996 2.1822906 -0.54312003
-3.8639994 2.2322905 -0.49312004
-3.8639994 2.2822905 -0.54312003
-3.8139994 2.2322905 -0.64312005
-3.8139994 2.1822906 -0.54312003
-3.8139994 2.1822906 -0.49312004
-3.8139994 2.2322905 -0.49312004
-3.7639995 2.1822906 -0.54312003
-3.8139994 2.2822905 -0.59312004
-3.7639995 2.2822905 -0.59312004
-3.8139994 2.2822905 -0.49312004
-3.8139994 2.3322906 -0.49312004
-3.7639995 2.3322906 -0.49312004
-3.9139996 2.2322905 -0.44312003
-3.8639994 2.1822906 -0.44312003
-3.8639994 2.2322905 -0.34312004
-3.9139996 2.2822905 -0.44312003
-3.9139996 2.3322906 -0.44312003
-3.9139996 2.3322906 -0.39312002
-3.8639994 2.2822905 -0.39312002
-3.8639994 2.3322906 -0.44312003
-3.8639994 2.3322906 -0.39312002
-3.8139994 2.1822906 -0.44312003
-3.8139994 2.1822906 -0.39312002
-3.7639995 2.2322905 -0.34312004
-3.8139994 2.3322906 -0.39312002
-3.7639995 2.2822905 -0.44312003
-3.7639995 2.2822905 -0.39312002
-3.8139994 2.3322906 -0.34312004
-3.8639994 2.3822906 -0.64312005
-3.9139996 2.3822906 -0.49312004
-3.8639994 2.3822906 -0.49312004
-3.8639994 2.4322906 -0.49312004
-3.9139996 2.4822905 -0.64312005
-3.9139996 2.4822905 -0.49312004
-3.8639994 2.4822905 -0.54312003
-3.8639994 2.4822905 -0.49312004
-3.7639995 2.3822906 -0.64312005
-3.7639995 2.3822906 -0.59312004
-3.8139994 2.3822906 -0.54312003
-3.7639995 2.3822906 -0.49312004
-3.7639995 2.4322906 -0.49312004
-3.8139994 2.4822905 -0.59312004
-3.8139994 2.5322905 -0.64312005
-3.8139994 2.5322905 -0.59312004
-3.8139994 2.4822905 -0.54312003
-3.8139994 2.4822905 -0.49312004
-3.7639995 2.4822905 -0.49312004
-3.9139996 2.3822906 -0.39312002
-3.9139996 2.4322906 -0.44312003
-3.9139996 2.4322906 -0.39312002
-3.8639994 2.4322906 -0.44312003
-3.8639994 2.4322906 -0.39312002
-3.9139996 2.4822905 -0.39312002
-3.9139996 2.5322905 -0.44312003
-3.8639994 2.5322905 -0.39312002
-3.8139994 2.4322906 -0.44312003
-3.8139994 2.4322906 -0.39312002
-3.8139994 2.4822905 -0.44312003
-3.8139994 2.5322905 -0.39312002
-3.7639995 2.5322905 -0.44312003
-3.8139994 2.5322905 -0.34312004
-3.6639993 1.7822906 -0.54312003
-3.6639993 1.8322905 -0.49312004
-3.7139995 1.8822905 -0.59312004
-3.7139995 1.8822905 -0.49312004
-3.6639993 1.8822905 -0.54312003
-3.6639993 1.9322906 -0.54312003
-3.5639994 1.7822906 -0.59312004
-3.6139994 1.7822906 -0.49312004
-3.6139994 1.8322905 -0.49312004
-3.6139994 1.9322906 -0.49312004
-3.5639994 1.8822905 -0.49312004
-3.5639994 1.9322906 -0.49312004
-3.7139995 1.8322905 -0.44312003
-3.6639993 1.8322905 -0.39312002
-3.7139995 1.8322905 -0.34312004
-3.7139995 1.8822905 -0.44312003
-3.7139995 1.8822905 -0.39312002
-3.7139995 1.9322906 -0.44312003
-3.6639993 1.9322906 -0.39312002
-3.6639993 1.8822905 -0.34312004
-3.6139994 1.8322905 -0.44312003
-3.5639994 1.7822906 -0.44312003
-3.5639994 1.7822906 -0.39312002
-3.5639994 1.8322905 -0.39312002
-3.6139994 1.8822905 -0.44312003
-3.6139994 1.8822905 -0.39312002
-3.6139994 1.9322906 -0.39312002
-3.5639994 1.9322906 -0.39312002
-3.6139994 1.9322906 -0.34312004
-3.7139995 1.9822905 -0.59312004
-3.7139995 1.9822905 -0.49312004
-3.7139995 2.0322905 -0.49312004
-3.6639993 1.9822905 -0.49312004
-3.6639993 2.0322905 -0.49312004
-3.7139995 2.0822904 -0.59312004
-3.7139995 2.0822904 -0.49312004
-3.6639993 2.0822904 -0.54312003
-3.6139994 2.0822904 -0.49312004
-3.6139994 2.1322906 -0.49312004
-3.7139995 1.9822905 -0.44312003
-3.7139995 2.0322905 -0.39312002
-3.6639993 1.9822905 -0.44312003
-3.7139995 2.0822904 -0.44312003
-3.7139995 2.1322906 -0.44312003
-3.6639993 2.0822904 -0.44312003
-3.6639993 2.1322906 -0.39312002
-3.7139995 2.0822904 -0.34312004
-3.6139994 1.9822905 -0.44312003
-3.6139994 1.9822905 -0.39312002
-3.6139994 2.0322905 -0.39312002
-3.5639994 1.9822905 -0.39312002
-3.6139994 2.0822904 -0.44312003
-3.6139994 2.0822904 -0.39312002
-3.6139994 2.1322906 -0.44312003
-3.5639994 2.0822904 -0.44312003
-3.5639994 2.1322906 -0.39312002
-3.5139995 1.8322905 -0.54312003
-3.4639995 1.7822906 -0.49312004
-3.4639995 1.8322905 -0.49312004
-3.5139995 1.8822905 -0.64312005
-3.4639995 1.8822905 -0.59312004
-3.5139995 1.9322906 -0.54312003
-3.5139995 1.9322906 -0.49312004
-3.4639995 1.8822905 -0.49312004
-3.4639995 1.9322906 -0.49312004
-3.4139993 1.8322905 -0.49312004
-3.3639994 1.7822906 -0.49312004
-3.3639994 1.8322905 -0.49312004
-3.3639994 1.9322906 -0.59312004
-3.3639994 1.9322906 -0.49312004
-3.5139995 1.8322905 -0.44312003
-3.4639995 1.8322905 -0.44312003
-3.4639995 1.8322905 -0.39312002
-3.4639995 1.7822906 -0.34312004
-3.5139995 1.9322906 -0.44312003
-3.5139995 1.9322906 -0.39312002
-3.4139993 1.7822906 -0.44312003
-3.4139993 1.7822906 -0.39312002
-3.4139993 1.8322905 -0.44312003
-3.3639994 1.8322905 -0.44312003
-3.3639994 1.7822906 -0.34312004
-3.3639994 1.8822905 -0.39312002
-3.3639994 1.9322906 -0.44312003
-3.4139993 1.8822905 -0.34312004
-3.5139995 1.9822905 -0.49312004
-3.5139995 2.0322905 -0.54312003
-3.4639995 2.0322905 -0.49312004
-3.5139995 2.1322906 -0.54312003
-3.5139995 2.1322906 -0.49312004
-3.4639995 2.0822904 -0.49312004
-3.4639995 2.1322906 -0.49312004
-3.4139993 2.0322905 -0.49312004
-3.3639994 2.0322905 -0.49312004
-3.4139993 2.1322906 -0.49312004
-3.4639995 2.0322905 -0.39312002
-3.5139995 2.0822904 -0.44312003
-3.5139995 2.0822904 -0.39312002
-3.4639995 2.0822904 -0.44312003
-3.4139993 2.0322905 -0.39312002
-3.3639994 1.9822905 -0.44312003
-3.3639994 1.9822905 -0.39312002
-3.3639994 2.0322905 -0.44312003
-3.4139993 2.1322906 -0.39312002
-3.3639994 1.8822905 -0.24312003
-3.3639994 2.0822904 0.0068799723
-3.4139993 2.1322906 0.10687997
-3.7139995 2.1822906 -0.59312004
-3.7139995 2.1822906 -0.49312004
-3.6639993 2.1822906 -0.54312003
-3.6639993 2.1822906 -0.49312004
-3.6639993 2.2322905 -0.54312003
-3.7139995 2.2822905 -0.59312004
-3.7139995 2.3322906 -0.59312004
-3.7139995 2.2822905 -0.54312003
-3.7139995 2.2822905 -0.49312004
-3.6639993 2.3322906 -0.54312003
-3.5639994 2.1822906 -0.59312004
-3.5639994 2.1822906 -0.49312004
-3.6139994 2.3322906 -0.59312004
-3.6139994 2.2822905 -0.49312004
-3.6139994 2.3322906 -0.49312004
-3.5639994 2.3322906 -0.54312003
-3.7139995 2.1822906 -0.39312002
-3.6639993 2.1822906 -0.44312003
-3.6639993 2.2322905 -0.44312003
-3.7139995 2.2822905 -0.44312003
-3.7139995 2.3322906 -0.44312003
-3.6639993 2.2822905 -0.39312002
-3.6639993 2.3322906 -0.44312003
-3.6639993 2.3322906 -0.39312002
-3.6639993 2.3322906 -0.34312004
-3.6139994 2.1822906 -0.44312003
-3.6139994 2.1822906 -0.39312002
-3.5639994 2.1822906 -0.44312003
-3.5639994 2.1822906 -0.39312002
-3.6139994 2.2822905 -0.44312003
-3.6139994 2.2822905 -0.39312002
-3.6139994 2.3322906 -0.44312003
-3.5639994 2.2822905 -0.44312003
-3.7139995 2.4322906 -0.59312004
-3.7139995 2.3822906 -0.54312003
-3.7139995 2.3822906 -0.49312004
-3.6639993 2.3822906 -0.49312004
-3.6639993 2.4322906 -0.49312004
-3.7139995 2.4822905 -0.54312003
-3.7139995 2.5322905 -0.54312003
-3.7139995 2.5322905 -0.49312004
-3.6139994 2.4322906 -0.49312004
-3.5639994 2.3822906 -0.49312004
-3.5639994 2.4322906 -0.54312003
-3.6139994 2.4822905 -0.54312003
-3.6139994 2.5322905 -0.49312004
-3.5639994 2.4822905 -0.54312003
-3.5639994 2.5322905 -0.49312004
-3.7139995 2.4322906 -0.44312003
-3.6639993 2.3822906 -0.39312002
-3.6639993 2.4322906 -0.39312002
-3.6639993 2.3822906 -0.34312004
-3.7139995 2.4822905 -0.44312003
-3.6639993 2.4822905 -0.44312003
-3.6639993 2.4822905 -0.39312002
-3.6639993 2.5322905 -0.44312003
-3.6639993 2.5322905 -0.39312002
-3.6139994 2.3822906 -0.44312003
-3.6139994 2.4322906 -0.39312002
-3.5639994 2.3822906 -0.44312003
-3.5639994 2.4322906 -0.44312003
-3.6139994 2.4322906 -0.29312003
-3.5639994 2.3822906 -0.34312004
-3.6139994 2.4822905 -0.44312003
-3.6139994 2.5322905 -0.44312003
-3.6139994 2.5322905 -0.39312002
-3.5639994 2.5322905 -0.44312003
-3.5639994 2.5322905 -0.39312002
-3.6139994 2.4822905 -0.34312004
-3.6139994 2.5322905 -0.34312004
-3.6139994 2.5322905 -0.29312003
-3.5639994 2.5322905 -0.29312003
-3.5139995 2.1822906 -0.49312004
-3.5139995 2.2322905 -0.54312003
-3.4639995 2.1822906 -0.49312004
-3.4639995 2.2322905 -0.49312004
-3.4639995 2.3322906 -0.49312004
-3.4139993 2.1822906 -0.49312004
-3.5139995 2.1822906 -0.44312003
-3.5139995 2.2322905 -0.44312003
-3.5139995 2.2322905 -0.39312002
-3.4639995 2.2322905 -0.39312002
-3.4639995 2.1822906 -0.34312004
-3.5139995 2.2822905 -0.39312002
-3.5139995 2.3322906 -0.44312003
-3.5139995 2.3322906 -0.39312002
-3.4639995 2.2822905 -0.44312003
-3.4639995 2.3322906 -0.39312002
-3.5139995 2.2822905 -0.34312004
-3.3639994 2.2322905 -0.44312003
-3.4139993 2.2322905 -0.34312004
-3.3639994 2.1822906 -0.34312004
-3.3639994 2.2322905 -0.34312004
-3.4139993 2.2822905 -0.44312003
-3.3639994 2.2822905 -0.39312002
-3.3639994 2.3322906 -0.44312003
-3.3639994 2.2822905 -0.34312004
-3.3639994 2.3322906 -0.34312004
-3.5139995 2.4322906 -0.49312004
-3.4639995 2.3822906 -0.49312004
-3.4639995 2.4322906 -0.54312003
-3.4639995 2.4322906 -0.49312004
-3.5139995 2.4822905 -0.49312004
-3.5139995 2.5322905 -0.49312004
-3.4639995 2.4822905 -0.49312004
-3.4139993 2.4322906 -0.49312004
-3.4139993 2.4822905 -0.49312004
-3.4139993 2.5322905 -0.49312004
-3.3639994 2.4822905 -0.49312004
-3.5139995 2.3822906 -0.44312003
-3.4639995 2.3822906 -0.44312003
-3.4639995 2.4322906 -0.39312002
-3.5139995 2.3822906 -0.34312004
-3.5139995 2.4322906 -0.29312003
-3.5139995 2.4822905 -0.44312003
-3.5139995 2.5322905 -0.44312003
-3.4639995 2.4822905 -0.44312003
-3.4639995 2.5322905 -0.39312002
-3.5139995 2.4822905 -0.29312003
-3.4639995 2.4822905 -0.29312003
-3.4639995 2.5322905 -0.29312003
-3.4139993 2.3822906 -0.44312003
-3.4139993 2.3822906 -0.39312002
-3.4139993 2.4322906 -0.39312002
-3.4139993 2.4822905 -0.44312003
-3.3639994 2.4822905 -0.44312003
-3.3639994 2.4822905 -0.39312002
-3.3639994 2.5322905 -0.44312003
-3.3639994 2.5322905 -0.39312002
-3.4139993 2.4822905 -0.29312003
-3.3639994 2.5322905 -0.34312004
-3.6139994 2.4322906 -0.093120031
-3.5639994 2.3822906 -0.093120031
-3.5639994 2.4322906 -0.14312004
-3.5639994 2.4822905 -0.24312003
-3.5639994 2.4822905 -0.14312004
-3.5639994 2.4322906 0.0068799723
-3.5639994 2.3822906 0.056879975
-3.5639994 2.5322905 -0.043120027
-3.5639994 2.5322905 0.0068799723
-3.6139994 2.5322905 0.10687997
-3.5639994 2.4822905 0.10687997
-3.5139995 2.3322906 -0.14312004
-3.4639995 2.3322906 0.0068799723
-3.4639995 2.2822905 0.10687997
-3.3639994 2.3322906 0.10687997
-3.5139995 2.3822906 -0.24312003
-3.4639995 2.4822905 -0.19312003
-3.5139995 2.5322905 -0.14312004
-3.4139993 2.4322906 -0.19312003
-3.3639994 2.4322906 -0.24312003
-3.4139993 2.5322905 -0.24312003
-3.4139993 2.5322905 -0.19312003
-3.3639994 2.4822905 -0.093120031
-3.5139995 2.4322906 -0.043120027
-3.5139995 2.4322906 0.0068799723
-3.4639995 2.3822906 0.0068799723
-3.5139995 2.4322906 0.056879975
-3.4639995 2.3822906 0.10687997
-3.5139995 2.4822905 -0.043120027
-3.5139995 2.5322905 -0.043120027
-3.4639995 2.4822905 -0.043120027
-3.5139995 2.4822905 0.056879975
-3.5139995 2.5322905 0.056879975
-3.5139995 2.5322905 0.10687997
-3.4639995 2.4822905 0.056879975
-3.4639995 2.4822905 0.10687997
-3.4639995 2.5322905 0.056879975
-3.4639995 2.5322905 0.10687997
-3.4139993 2.3822906 0.056879975
-3.3639994 2.3822906 0.10687997
-3.3639994 2.4322906 0.10687997
-3.4139993 2.4822905 0.0068799723
-3.4139993 2.5322905 -0.043120027
-3.3639994 2.4822905 0.0068799723
-3.4139993 2.4822905 0.10687997
-3.4139993 2.5322905 0.056879975
-3.3639994 2.4822905 0.056879975
-3.3639994 2.4822905 0.10687997
-3.3639994 2.5322905 0.056879975
-3.3639994 1.8322905 0.15687998
-3.4139993 1.9322906 0.15687998
-3.3639994 1.8822905 0.15687998
-3.3639994 1.9322906 0.30687997
-3.3639994 1.8322905 0.35687998
-3.4139993 1.9822905 0.15687998
-3.4139993 1.9822905 0.20687997
-3.4139993 2.0322905 0.15687998
-3.3639994 1.9822905 0.15687998
-3.3639994 2.0322905 0.25687999
-3.3639994 2.0322905 0.30687997
-3.4139993 2.0822904 0.15687998
-3.4139993 2.1322906 0.20687997
-3.3639994 2.0322905 0.35687998
-3.3639994 2.1322906 0.35687998
-3.3639994 2.0822904 0.50687999
-3.6639993 2.5322905 0.30687997
-3.5639994 2.4322906 0.15687998
-3.5639994 2.4822905 0.25687999
-3.6639993 2.4322906 0.35687998
-3.6639993 2.5322905 0.45687997
-3.5639994 2.3822906 0.40687999
-3.6139994 2.5322905 0.40687999
-3.6139994 2.5322905 0.45687997
-3.4639995 2.2322905 0.15687998
-3.4639995 2.2822905 0.15687998
-3.4639995 2.2822905 0.20687997
-3.4639995 2.3322906 0.15687998
-3.5139995 2.3322906 0.25687999
-3.3639994 2.1822906 0.25687999
-3.3639994 2.2322905 0.25687999
-3.4139993 2.3322906 0.15687998
-3.4139993 2.2822905 0.25687999
-3.4639995 2.3322906 0.50687999
-3.4139993 2.1822906 0.40687999
-3.4139993 2.2322905 0.35687998
-3.3639994 2.2322905 0.45687997
-3.5139995 2.3822906 0.20687997
-3.5139995 2.4322906 0.15687998
-3.5139995 2.4322906 0.20687997
-3.4639995 2.4322906 0.15687998
-3.4639995 2.4322906 0.20687997
-3.5139995 2.4322906 0.25687999
-3.5139995 2.4322906 0.30687997
-3.4639995 2.4822905 0.15687998
-3.4639995 2.5322905 0.30687997
-3.3639994 2.3822906 0.20687997
-3.4139993 2.4822905 0.15687998
-3.4139993 2.4822905 0.20687997
-3.4139993 2.5322905 0.15687998
-3.3639994 2.5322905 0.15687998
-3.4139993 2.5322905 0.25687999
-3.3639994 2.5322905 0.25687999
-3.5139995 2.3822906 0.40687999
-3.4639995 2.3822906 0.45687997
-3.4139993 2.3822906 0.40687999
-3.3639994 2.4822905 0.40687999
-3.3639994 2.4822905 0.65687996
-4.0639997 2.5822906 -0.59312004
-4.1139994 2.5822906 -0.54312003
-4.1139994 2.5822906 -0.49312004
-4.1139994 2.6322906 -0.49312004
-4.0639997 2.6322906 -0.49312004
-4.0639997 2.6822906 -0.59312004
-4.1139994 2.6822906 -0.49312004
-4.0139995 2.5822906 -0.49312004
-4.0139995 2.6322906 -0.49312004
-3.9639995 2.5822906 -0.49312004
-3.9639995 2.6322906 -0.54312003
-3.9639995 2.6322906 -0.49312004
-3.9639995 2.7322905 -0.64312005
-4.0139995 2.6822906 -0.54312003
-4.0139995 2.6822906 -0.49312004
-4.0139995 2.7322905 -0.49312004
-4.1139994 2.5822906 -0.44312003
-4.0639997 2.5822906 -0.44312003
-4.0639997 2.5822906 -0.39312002
-4.0639997 2.6322906 -0.39312002
-4.1139994 2.6822906 -0.44312003
-4.0639997 2.6822906 -0.44312003
-4.0139995 2.6322906 -0.44312003
-4.0139995 2.6322906 -0.39312002
-3.9639995 2.5822906 -0.44312003
-3.9639995 2.6322906 -0.39312002
-4.0139995 2.6822906 -0.39312002
-4.0139995 2.7322905 -0.44312003
-4.0139995 2.7322905 -0.39312002
-3.9639995 2.7322905 -0.44312003
-4.0639997 2.7822905 -0.59312004
-4.1139994 2.7822905 -0.49312004
-4.1139994 2.8322906 -0.49312004
-4.0639997 2.7822905 -0.49312004
-4.0639997 2.8322906 -0.49312004
-4.0639997 2.9322906 -0.59312004
-4.1139994 2.8822906 -0.49312004
-4.1139994 2.9322906 -0.49312004
-4.0639997 2.8822906 -0.49312004
-4.0139995 2.7822905 -0.49312004
-3.9639995 2.7822905 -0.54312003
-3.9639995 2.8322906 -0.54312003
-3.9639995 2.8822906 -0.64312005
-3.9639995 2.9322906 -0.59312004
-4.0139995 2.9322906 -0.49312004
-3.9639995 2.8822906 -0.49312004
-3.9639995 2.9322906 -0.49312004
-4.1139994 2.8322906 -0.44312003
-4.0639997 2.8322906 -0.39312002
-4.1139994 2.8822906 -0.39312002
-4.1139994 2.9322906 -0.44312003
-4.0639997 2.8822906 -0.39312002
-4.0139995 2.7822905 -0.44312003
-3.9639995 2.8322906 -0.44312003
-3.9639995 2.7822905 -0.34312004
-3.9639995 2.8822906 -0.44312003
-3.9639995 2.8822906 -0.39312002
-3.9139996 2.6322906 -0.64312005
-3.8639994 2.6322906 -0.64312005
-3.9139996 2.5822906 -0.54312003
-3.9139996 2.5822906 -0.49312004
-3.9139996 2.6322906 -0.49312004
-3.8639994 2.6322906 -0.49312004
-3.8639994 2.6822906 -0.59312004
-3.9139996 2.6822906 -0.54312003
-3.8139994 2.6322906 -0.64312005
-3.8139994 2.6322906 -0.59312004
-3.8139994 2.5822906 -0.54312003
-3.7639995 2.5822906 -0.49312004
-3.7639995 2.6322906 -0.49312004
-3.7639995 2.6822906 -0.64312005
-3.8139994 2.6822906 -0.54312003
-3.8139994 2.6822906 -0.49312004
-3.7639995 2.6822906 -0.49312004
-3.9139996 2.5822906 -0.39312002
-3.9139996 2.6322906 -0.44312003
-3.8639994 2.5822906 -0.44312003
-3.8639994 2.6322906 -0.44312003
-3.9139996 2.6822906 -0.39312002
-3.9139996 2.7322905 -0.39312002
-3.8139994 2.5822906 -0.44312003
-3.8139994 2.5822906 -0.39312002
-3.8139994 2.6322906 -0.39312002
-3.7639995 2.5822906 -0.44312003
-3.7639995 2.6322906 -0.34312004
-3.8139994 2.6822906 -0.44312003
-3.8139994 2.7322905 -0.39312002
-3.7639995 2.6822906 -0.44312003
-3.7639995 2.6822906 -0.39312002
-3.7639995 2.7322905 -0.39312002
-3.9139996 2.7822905 -0.59312004
-3.9139996 2.8322906 -0.59312004
-3.9139996 2.7822905 -0.54312003
-3.8639994 2.7822905 -0.49312004
-3.9139996 2.8822906 -0.54312003
-3.9139996 2.8822906 -0.49312004
-3.8139994 2.7822905 -0.64312005
-3.8139994 2.7822905 -0.54312003
-3.8139994 2.8822906 -0.64312005
-3.8139994 2.8822906 -0.54312003
-3.8139994 2.8822906 -0.49312004
-3.8139994 2.9322906 -0.49312004
-3.7639995 2.8822906 -0.49312004
-3.9139996 2.7822905 -0.39312002
-3.9139996 2.8322906 -0.39312002
-3.8639994 2.7822905 -0.39312002
-3.8639994 2.8322906 -0.39312002
-3.9139996 2.8822906 -0.39312002
-3.9139996 2.9322906 -0.39312002
-3.8639994 2.8822906 -0.44312003
-3.8639994 2.9322906 -0.44312003
-3.8639994 2.9322906 -0.39312002
-3.8139994 2.7822905 -0.39312002
-3.8139994 2.8322906 -0.44312003
-3.8139994 2.8322906 -0.39312002
-3.7639995 2.7822905 -0.44312003
-3.7639995 2.7822905 -0.39312002
-3.8139994 2.8822906 -0.44312003
-3.8139994 2.8822906 -0.39312002
-3.8139994 2.9322906 -0.44312003
-3.7639995 2.8822906 -0.44312003
-3.7639995 2.9322906 -0.44312003
-3.7639995 2.9322906 -0.39312002
-4.1139994 2.9822905 -0.49312004
-4.0639997 3.0822906 -0.59312004
-4.1139994 3.1322906 -0.54312003
-4.1139994 3.1322906 -0.49312004
-4.0639997 3.0822906 -0.49312004
-4.0139995 3.0322905 -0.59312004
-3.9639995 2.9822905 -0.64312005
-4.0139995 2.9822905 -0.49312004
-3.9639995 3.1322906 -0.64312005
-3.9639995 3.1322906 -0.49312004
-4.0639997 2.9822905 -0.44312003
-4.1139994 3.0822906 -0.44312003
-4.1139994 3.1322906 -0.44312003
-4.0639997 3.0822906 -0.44312003
-4.0639997 3.0822906 -0.39312002
-4.0639997 3.1322906 -0.44312003
-4.0639997 3.1322906 -0.39312002
-4.0139995 2.9822905 -0.39312002
-4.0139995 3.0322905 -0.39312002
-3.9639995 2.9822905 -0.44312003
-3.9639995 2.9822905 -0.39312002
-3.9639995 3.0322905 -0.39312002
-4.0139995 3.0822906 -0.44312003
-4.0139995 3.1322906 -0.44312003
-3.9639995 3.0822906 -0.44312003
-3.9639995 3.0822906 -0.39312002
-3.9639995 3.1322906 -0.44312003
-4.0639997 3.2322905 -0.64312005
-4.0639997 3.3322906 -0.59312004
-4.0139995 3.1822906 -0.59312004
-4.0139995 3.1822906 -0.49312004
-4.0139995 3.2822905 -0.59312004
-4.1139994 3.2322905 -0.44312003
-4.0639997 3.1822906 -0.39312002
-4.0639997 3.2322905 -0.44312003
-4.0639997 3.2322905 -0.39312002
-4.0639997 3.2822905 -0.39312002
-4.0639997 3.3322906 -0.44312003
-4.0639997 3.3322906 -0.39312002
-4.0139995 3.2322905 -0.44312003
-3.9639995 3.1822906 -0.44312003
-3.9639995 3.1822906 -0.39312002
-4.0139995 3.2822905 -0.44312003
-3.9639995 3.2822905 -0.39312002
-3.9639995 3.3322906 -0.39312002
-3.9139996 3.0322905 -0.49312004
-3.8639994 2.9822905 -0.49312004
-3.9139996 3.1322906 -0.49312004
-3.8139994 3.0322905 -0.64312005
-3.7639995 3.1322906 -0.49312004
-3.9139996 3.0322905 -0.44312003
-3.9139996 3.0322905 -0.39312002
-3.8639994 3.0322905 -0.44312003
-3.8639994 3.0322905 -0.39312002
-3.9139996 3.0822906 -0.44312003
-3.8639994 3.0822906 -0.44312003
-3.8639994 3.0822906 -0.39312002
-3.8639994 3.1322906 -0.44312003
-3.8639994 3.1322906 -0.39312002
-3.8139994 2.9822905 -0.39312002
-3.7639995 2.9822905 -0.44312003
-3.7639995 3.0322905 -0.39312002
-3.7639995 3.1322906 -0.44312003
-3.7639995 3.1322906 -0.39312002
-3.8639994 3.1822906 -0.49312004
-3.7639995 3.1822906 -0.64312005
-3.8139994 3.2822905 -0.64312005
-3.7639995 3.2822905 -0.49312004
-3.9139996 3.1822906 -0.44312003
-3.9139996 3.1822906 -0.39312002
-3.9139996 3.2322905 -0.44312003
-3.9139996 3.2322905 -0.39312002
-3.8639994 3.1822906 -0.44312003
-3.8639994 3.2322905 -0.44312003
-3.8639994 3.2322905 -0.39312002
-3.9139996 3.3322906 -0.39312002
-3.8639994 3.3322906 -0.44312003
-3.8139994 3.1822906 -0.44312003
-3.7639995 3.2322905 -0.44312003
-3.7639995 3.2322905 -0.39312002
-3.8139994 3.2822905 -0.44312003
-3.8139994 3.3322906 -0.44312003
-3.8139994 3.3322906 -0.39312002
-3.7639995 3.2822905 -0.44312003
-3.7639995 3.3322906 -0.39312002
-3.6639993 2.5822906 -0.59312004
-3.7139995 2.6322906 -0.49312004
-3.6639993 2.5822906 -0.49312004
-3.6639993 2.6322906 -0.54312003
-3.6639993 2.6822906 -0.59312004
-3.6639993 2.7322905 -0.64312005
-3.6639993 2.6822906 -0.54312003
-3.6639993 2.6822906 -0.49312004
-3.6139994 2.5822906 -0.54312003
-3.6139994 2.5822906 -0.49312004
-3.6139994 2.6322906 -0.49312004
-3.6139994 2.7322905 -0.49312004
-3.7139995 2.5822906 -0.44312003
-3.7139995 2.6322906 -0.39312002
-3.6639993 2.5822906 -0.39312002
-3.6639993 2.6322906 -0.44312003
-3.6639993 2.5822906 -0.34312004
-3.7139995 2.6822906 -0.44312003
-3.7139995 2.7322905 -0.39312002
-3.6639993 2.6822906 -0.44312003
-3.6639993 2.6822906 -0.39312002
-3.6639993 2.7322905 -0.39312002
-3.6139994 2.6322906 -0.44312003
-3.6139994 2.6322906 -0.39312002
-3.5639994 2.5822906 -0.44312003
-3.5639994 2.5822906 -0.39312002
-3.6139994 2.6322906 -0.34312004
-3.5639994 2.6322906 -0.29312003
-3.6139994 2.6822906 -0.39312002
-3.6139994 2.7322905 -0.44312003
-3.6139994 2.6822906 -0.34312004
-3.6139994 2.6822906 -0.29312003
-3.6139994 2.7322905 -0.29312003
-3.5639994 2.6822906 -0.34312004
-3.6639993 2.7822905 -0.59312004
-3.7139995 2.7822905 -0.54312003
-3.7139995 2.7822905 -0.49312004
-3.6639993 2.8822906 -0.59312004
-3.6639993 2.8822906 -0.49312004
-3.6639993 2.9322906 -0.49312004
-3.6139994 2.8322906 -0.49312004
-3.6139994 2.8822906 -0.49312004
-3.5639994 2.8822906 -0.49312004
-3.7139995 2.7822905 -0.44312003
-3.7139995 2.8322906 -0.39312002
-3.6639993 2.7822905 -0.44312003
-3.6639993 2.8822906 -0.39312002
-3.6639993 2.9322906 -0.44312003
-3.6639993 2.9322906 -0.39312002
-3.6139994 2.7822905 -0.44312003
-3.6139994 2.7822905 -0.39312002
-3.6139994 2.8322906 -0.44312003
-3.5639994 2.7822905 -0.44312003
-3.5639994 2.7822905 -0.34312004
-3.6139994 2.8822906 -0.44312003
-3.6139994 2.9322906 -0.44312003
-3.5639994 2.8822906 -0.44312003
-3.5639994 2.9322906 -0.34312004
-3.5139995 2.5822906 -0.54312003
-3.5139995 2.5822906 -0.49312004
-3.4639995 2.5822906 -0.49312004
-3.5139995 2.6822906 -0.49312004
-3.4639995 2.6822906 -0.49312004
-3.4139993 2.6322906 -0.49312004
-3.3639994 2.5822906 -0.49312004
-3.4139993 2.6822906 -0.54312003
-3.5139995 2.5822906 -0.44312003
-3.5139995 2.6322906 -0.44312003
-3.4639995 2.5822906 -0.44312003
-3.4639995 2.5822906 -0.39312002
-3.4639995 2.6322906 -0.39312002
-3.5139995 2.5822906 -0.29312003
-3.5139995 2.6322906 -0.34312004
-3.5139995 2.6322906 -0.29312003
-3.5139995 2.6822906 -0.44312003
-3.5139995 2.7322905 -0.44312003
-3.4639995 2.7322905 -0.44312003
-3.4639995 2.7322905 -0.39312002
-3.5139995 2.6822906 -0.34312004
-3.5139995 2.7322905 -0.34312004
-3.4639995 2.6822906 -0.29312003
-3.4139993 2.6322906 -0.44312003
-3.4139993 2.6322906 -0.29312003
-3.3639994 2.5822906 -0.34312004
-3.3639994 2.6322906 -0.29312003
-3.4139993 2.6822906 -0.44312003
-3.3639994 2.7322905 -0.44312003
-3.4139993 2.6822906 -0.29312003
-3.5139995 2.7822905 -0.64312005
-3.4639995 2.8322906 -0.54312003
-3.5139995 2.9322906 -0.54312003
-3.4639995 2.9322906 -0.54312003
-3.4139993 2.8322906 -0.64312005
-3.3639994 2.8322906 -0.54312003
-3.5139995 2.7822905 -0.44312003
-3.4639995 2.7822905 -0.39312002
-3.4639995 2.8322906 -0.44312003
-3.5139995 2.8322906 -0.34312004
-3.4639995 2.7822905 -0.34312004
-3.5139995 2.9322906 -0.44312003
-3.5139995 2.9322906 -0.39312002
-3.4639995 2.8822906 -0.44312003
-3.4639995 2.8822906 -0.39312002
-3.4639995 2.9322906 -0.39312002
-3.4639995 2.8822906 -0.34312004
-3.4139993 2.7822905 -0.44312003
-3.4139993 2.8322906 -0.44312003
-3.3639994 2.7822905 -0.44312003
-3.3639994 2.8322906 -0.44312003
-3.4139993 2.9322906 -0.44312003
-3.3639994 2.8822906 -0.39312002
-3.4139993 2.8822906 -0.34312004
-3.3639994 2.8822906 -0.34312004
-3.6639993 2.7322905 -0.24312003
-3.6139994 2.5822906 -0.24312003
-3.6139994 2.5822906 -0.19312003
-3.6139994 2.6322906 -0.19312003
-3.5639994 2.6322906 -0.24312003
-3.6139994 2.5822906 -0.093120031
-3.5639994 2.5822906 -0.14312004
-3.6139994 2.7322905 -0.24312003
-3.5639994 2.6822906 -0.24312003
-3.5639994 2.7322905 -0.19312003
-3.6139994 2.6822906 -0.14312004
-3.5639994 2.6822906 -0.14312004
-3.6639993 2.7322905 0.10687997
-3.6139994 2.6322906 0.0068799723
-3.5639994 2.5822906 0.0068799723
-3.5639994 2.6322906 -0.043120027
-3.6139994 2.5822906 0.10687997
-3.6139994 2.6322906 0.056879975
-3.5639994 2.5822906 0.10687997
-3.5639994 2.6822906 0.0068799723
-3.5639994 2.7322905 -0.043120027
-3.5639994 2.7322905 0.0068799723
-3.6139994 2.6822906 0.10687997
-3.6139994 2.7322905 0.10687997
-3.5639994 2.7322905 0.10687997
-3.6139994 2.7822905 -0.19312003
-3.6139994 2.8322906 -0.24312003
-3.5639994 2.7822905 -0.24312003
-3.5639994 2.7822905 -0.19312003
-3.6139994 2.8322906 -0.14312004
-3.5639994 2.7822905 -0.14312004
-3.5639994 2.8322906 -0.093120031
-3.6139994 2.8822906 -0.093120031
-3.5639994 2.8822906 -0.093120031
-3.5639994 2.9322906 -0.14312004
-3.6639993 2.8322906 0.10687997
-3.6139994 2.8322906 0.0068799723
-3.5639994 2.7822905 -0.043120027
-3.5639994 2.7822905 0.0068799723
-3.5639994 2.8322906 -0.043120027
-3.5639994 2.8322906 0.0068799723
-3.5639994 2.7822905 0.056879975
-3.5639994 2.8322906 0.10687997
-3.6139994 2.9322906 -0.043120027
-3.5639994 2.8822906 0.0068799723
-3.5639994 2.9322906 0.0068799723
-3.6139994 2.8822906 0.10687997
-3.5639994 2.8822906 0.10687997
-3.5639994 2.9322906 0.10687997
-3.5139995 2.6322906 -0.24312003
-3.4639995 2.5822906 -0.24312003
-3.4639995 2.6322906 -0.19312003
-3.5139995 2.5822906 -0.14312004
-3.5139995 2.5822906 -0.093120031
-3.4639995 2.5822906 -0.14312004
-3.4639995 2.6322906 -0.14312004
-3.5139995 2.6822906 -0.24312003
-3.5139995 2.6822906 -0.19312003
-3.5139995 2.7322905 -0.19312003
-3.4639995 2.6822906 -0.24312003
-3.4639995 2.7322905 -0.19312003
-3.5139995 2.7322905 -0.14312004
-3.5139995 2.7322905 -0.093120031
-3.4639995 2.6822906 -0.14312004
-3.4639995 2.6822906 -0.093120031
-3.4639995 2.7322905 -0.093120031
-3.4139993 2.6322906 -0.19312003
-3.3639994 2.5822906 -0.24312003
-3.4139993 2.6322906 -0.14312004
-3.3639994 2.6322906 -0.14312004
-3.4139993 2.6822906 -0.19312003
-3.4139993 2.7322905 -0.24312003
-3.4139993 2.7322905 -0.19312003
-3.3639994 2.7322905 -0.19312003
-3.4139993 2.6822906 -0.093120031
-3.4139993 2.7322905 -0.14312004
-3.3639994 2.6822906 -0.093120031
-3.3639994 2.7322905 -0.14312004
-3.3639994 2.7322905 -0.093120031
-3.5139995 2.5822906 -0.043120027
-3.5139995 2.6322906 -0.043120027
-3.4639995 2.5822906 -0.043120027
-3.4639995 2.5822906 0.0068799723
-3.4639995 2.5822906 0.056879975
-3.5139995 2.6822906 -0.043120027
-3.5139995 2.6822906 0.0068799723
-3.5139995 2.7322905 -0.043120027
-3.4639995 2.6822906 0.0068799723
-3.4639995 2.7322905 0.0068799723
-3.5139995 2.6822906 0.056879975
-3.4639995 2.7322905 0.056879975
-3.4139993 2.5822906 0.0068799723
-3.3639994 2.5822906 0.0068799723
-3.3639994 2.6322906 -0.043120027
-3.4139993 2.5822906 0.056879975
-3.4139993 2.5822906 0.10687997
-3.4139993 2.6322906 0.056879975
-3.3639994 2.5822906 0.056879975
-3.3639994 2.5822906 0.10687997
-3.3639994 2.6322906 0.056879975
-3.4139993 2.6822906 0.0068799723
-3.3639994 2.6822906 -0.043120027
-3.3639994 2.6822906 0.0068799723
-3.3639994 2.7322905 0.0068799723
-3.4139993 2.6822906 0.056879975
-3.4139993 2.6822906 0.10687997
-3.4139993 2.7322905 0.10687997
-3.3639994 2.6822906 0.056879975
-3.3639994 2.7322905 0.056879975
-3.3639994 2.7322905 0.10687997
-3.5139995 2.7822905 -0.19312003
-3.5139995 2.7822905 -0.14312004
-3.5139995 2.7822905 -0.093120031
-3.4639995 2.7822905 -0.14312004
-3.4639995 2.7822905 -0.093120031
-3.4639995 2.8322906 -0.093120031
-3.5139995 2.8822906 -0.19312003
-3.5139995 2.9322906 -0.24312003
-3.4639995 2.9322906 -0.24312003
-3.5139995 2.8822906 -0.093120031
-3.5139995 2.9322906 -0.14312004
-3.4639995 2.8822906 -0.14312004
-3.4639995 2.8822906 -0.093120031
-3.4639995 2.9322906 -0.14312004
-3.4139993 2.7822905 -0.19312003
-3.4139993 2.7822905 -0.14312004
-3.4139993 2.7822905 -0.093120031
-3.4139993 2.8322906 -0.093120031
-3.3639994 2.7822905 -0.14312004
-3.3639994 2.7822905 -0.093120031
-3.4139993 2.9322906 -0.093120031
-3.5139995 2.7822905 0.0068799723
-3.5139995 2.8322906 -0.043120027
-3.5139995 2.8322906 0.0068799723
-3.4639995 2.7822905 -0.043120027
-3.4639995 2.7822905 0.0068799723
-3.4639995 2.8322906 -0.043120027
-3.4639995 2.7822905 0.10687997
-3.4639995 2.8322906 0.056879975
-3.4639995 2.8822906 0.0068799723
-3.4639995 2.9322906 -0.043120027
-3.4639995 2.9322906 0.0068799723
-3.5139995 2.8822906 0.056879975
-3.5139995 2.9322906 0.056879975
-3.4639995 2.8822906 0.10687997
-3.4639995 2.9322906 0.056879975
-3.4639995 2.9322906 0.10687997
-3.4139993 2.7822905 0.0068799723
-3.4139993 2.8322906 0.0068799723
-3.3639994 2.7822905 0.0068799723
-3.3639994 2.8322906 -0.043120027
-3.3639994 2.8322906 0.0068799723
-3.4139993 2.7822905 0.056879975
-3.4139993 2.8322906 0.056879975
-3.4139993 2.8322906 0.10687997
-3.3639994 2.7822905 0.056879975
-3.3639994 2.7822905 0.10687997
-3.4139993 2.8822906 -0.043120027
-3.3639994 2.8822906 -0.043120027
-3.3639994 2.8822906 0.0068799723
-3.3639994 2.9322906 0.0068799723
-3.4139993 2.9322906 0.10687997
-3.3639994 2.8822906 0.10687997
-3.3639994 2.9322906 0.056879975
-3.3639994 2.9322906 0.10687997
-3.6639993 2.9822905 -0.59312004
-3.7139995 3.0322905 -0.49312004
-3.6639993 3.0822906 -0.59312004
-3.6639993 3.1322906 -0.59312004
-3.5639994 3.0322905 -0.54312003
-3.5639994 3.0322905 -0.49312004
-3.5639994 3.0822906 -0.54312003
-3.7139995 2.9822905 -0.44312003
-3.6639993 2.9822905 -0.44312003
-3.6639993 2.9822905 -0.39312002
-3.6639993 3.0322905 -0.44312003
-3.6639993 3.0322905 -0.39312002
-3.7139995 3.0822906 -0.44312003
-3.7139995 3.0822906 -0.39312002
-3.6639993 3.0822906 -0.44312003
-3.6639993 3.1322906 -0.44312003
-3.6639993 3.1322906 -0.39312002
-3.6139994 3.0322905 -0.39312002
-3.5639994 2.9822905 -0.44312003
-3.5639994 3.0322905 -0.44312003
-3.5639994 2.9822905 -0.29312003
-3.5639994 3.0322905 -0.34312004
-3.6139994 3.0822906 -0.44312003
-3.5639994 3.0822906 -0.39312002
-3.5639994 3.1322906 -0.44312003
-3.5639994 3.1322906 -0.39312002
-3.6639993 3.2322905 -0.59312004
-3.7139995 3.1822906 -0.49312004
-3.7139995 3.2322905 -0.49312004
-3.6639993 3.2322905 -0.49312004
-3.6139994 3.2322905 -0.54312003
-3.5639994 3.1822906 -0.49312004
-3.5639994 3.3322906 -0.54312003
-3.7139995 3.2322905 -0.44312003
-3.6639993 3.1822906 -0.44312003
-3.6639993 3.2322905 -0.44312003
-3.6639993 3.2322905 -0.39312002
-3.7139995 3.2822905 -0.44312003
-3.7139995 3.3322906 -0.44312003
-3.7139995 3.3322906 -0.39312002
-3.6639993 3.2822905 -0.44312003
-3.6639993 3.3322906 -0.44312003
-3.6639993 3.3322906 -0.39312002
-3.6139994 3.1822906 -0.44312003
-3.5639994 3.1822906 -0.44312003
-3.5639994 3.2322905 -0.44312003
-3.5639994 3.2322905 -0.39312002
-3.5639994 3.1822906 -0.34312004
-3.5639994 3.3322906 -0.44312003
-3.5639994 3.3322906 -0.39312002
-3.4639995 3.0322905 -0.54312003
-3.3639994 2.9822905 -0.49312004
-3.5139995 2.9822905 -0.44312003
-3.5139995 3.0322905 -0.39312002
-3.4639995 2.9822905 -0.44312003
-3.4639995 2.9822905 -0.39312002
-3.4639995 3.0322905 -0.39312002
-3.5139995 3.0322905 -0.29312003
-3.4639995 2.9822905 -0.34312004
-3.4639995 2.9822905 -0.29312003
-3.5139995 3.0822906 -0.44312003
-3.4639995 3.1322906 -0.44312003
-3.4639995 3.1322906 -0.39312002
-3.5139995 3.1322906 -0.34312004
-3.4639995 3.0822906 -0.29312003
-3.4639995 3.1322906 -0.29312003
-3.4139993 2.9822905 -0.44312003
-3.4139993 3.0322905 -0.44312003
-3.3639994 2.9822905 -0.39312002
-3.4139993 3.0322905 -0.34312004
-3.3639994 2.9822905 -0.34312004
-3.3639994 3.0322905 -0.29312003
-3.3639994 3.0822906 -0.44312003
-3.4139993 3.0822906 -0.29312003
-3.4139993 3.1322906 -0.34312004
-3.3639994 3.0822906 -0.34312004
-3.3639994 3.0822906 -0.29312003
-3.3639994 3.1322906 -0.34312004
-3.4139993 3.1822906 -0.49312004
-3.5139995 3.2322905 -0.44312003
-3.5139995 3.2322905 -0.39312002
-3.4639995 3.1822906 -0.44312003
-3.4639995 3.2322905 -0.44312003
-3.5139995 3.3322906 -0.44312003
-3.5139995 3.3322906 -0.39312002
-3.4639995 3.2822905 -0.44312003
-3.4639995 3.3322906 -0.44312003
-3.4139993 3.1822906 -0.44312003
-3.3639994 3.1822906 -0.39312002
-3.3639994 3.2322905 -0.44312003
-3.4139993 3.2322905 -0.34312004
-3.3639994 3.1822906 -0.34312004
-3.4139993 3.2822905 -0.39312002
-3.3639994 3.3322906 -0.44312003
-3.4139993 3.2822905 -0.34312004
-3.5639994 3.1322906 -0.24312003
-3.5639994 3.1322906 -0.19312003
-3.5639994 3.0822906 -0.14312004
-3.5639994 3.1322906 -0.093120031
-3.6639993 3.0822906 0.10687997
-3.5639994 3.0322905 -0.043120027
-3.5639994 3.0322905 0.0068799723
-3.5639994 2.9822905 0.10687997
-3.5639994 3.0322905 0.10687997
-3.5639994 3.2322905 0.10687997
-3.5139995 3.0322905 -0.24312003
-3.4639995 2.9822905 -0.24312003
-3.4639995 3.0322905 -0.24312003
-3.5139995 2.9822905 -0.14312004
-3.5139995 2.9822905 -0.093120031
-3.5139995 3.0322905 -0.14312004
-3.5139995 3.0322905 -0.093120031
-3.4639995 2.9822905 -0.14312004
-3.4639995 2.9822905 -0.093120031
-3.4639995 3.0322905 -0.14312004
-3.5139995 3.0822906 -0.24312003
-3.5139995 3.1322906 -0.24312003
-3.4639995 3.1322906 -0.24312003
-3.4639995 3.0822906 -0.14312004
-3.4639995 3.0822906 -0.093120031
-3.4639995 3.1322906 -0.093120031
-3.4139993 3.0322905 -0.19312003
-3.3639994 2.9822905 -0.19312003
-3.3639994 3.0322905 -0.24312003
-3.4139993 2.9822905 -0.14312004
-3.4139993 2.9822905 -0.093120031
-3.4139993 3.0322905 -0.14312004
-3.3639994 2.9822905 -0.093120031
-3.3639994 3.0322905 -0.14312004
-3.4139993 3.1322906 -0.24312003
-3.4139993 3.1322906 -0.19312003
-3.3639994 3.0822906 -0.24312003
-3.3639994 3.0822906 -0.19312003
-3.3639994 3.1322906 -0.19312003
-3.4139993 3.1322906 -0.14312004
-3.3639994 3.0822906 -0.14312004
-3.3639994 3.0822906 -0.093120031
-3.3639994 3.1322906 -0.093120031
-3.5139995 2.9822905 -0.043120027
-3.5139995 2.9822905 0.0068799723
-3.4639995 2.9822905 -0.043120027
-3.4639995 2.9822905 0.0068799723
-3.4639995 3.0322905 -0.043120027
-3.5139995 2.9822905 0.056879975
-3.5139995 2.9822905 0.10687997
-3.5139995 3.0322905 0.10687997
-3.4639995 2.9822905 0.056879975
-3.4639995 2.9822905 0.10687997
-3.4639995 3.0322905 0.056879975
-3.4639995 3.0322905 0.10687997
-3.4639995 3.0822906 -0.043120027
-3.4639995 3.0822906 0.0068799723
-3.4639995 3.0822906 0.056879975
-3.4639995 3.1322906 0.056879975
-3.4139993 2.9822905 0.0068799723
-3.4139993 3.0322905 -0.043120027
-3.3639994 2.9822905 -0.043120027
-3.3639994 2.9822905 0.0068799723
-3.4139993 2.9822905 0.056879975
-3.3639994 2.9822905 0.10687997
-3.3639994 3.0322905 0.056879975
-3.3639994 3.0822906 -0.043120027
-3.3639994 3.1322906 0.0068799723
-3.4139993 3.0822906 0.056879975
-3.4139993 3.0822906 0.10687997
-3.3639994 3.0822906 0.056879975
-3.3639994 3.1322906 0.10687997
-3.4139993 3.1822906 -0.24312003
-3.3639994 3.1822906 -0.19312003
-3.3639994 3.2322905 -0.24312003
-3.3639994 3.2322905 -0.19312003
-3.4139993 3.1822906 -0.14312004
-3.3639994 3.1822906 -0.093120031
-3.3639994 3.1822906 0.0068799723
-3.7139995 2.5822906 0.15687998
-3.7139995 2.6322906 0.15687998
-3.7139995 2.5822906 0.30687997
-3.6639993 2.6822906 0.30687997
-3.5639994 2.5822906 0.15687998
-3.5639994 2.6322906 0.15687998
-3.5639994 2.5822906 0.25687999
-3.5639994 2.6822906 0.20687997
-3.6139994 2.6822906 0.25687999
-3.5639994 2.6822906 0.25687999
-3.6639993 2.5822906 0.35687998
-3.6639993 2.6322906 0.40687999
-3.6139994 2.5822906 0.40687999
-3.5639994 2.6322906 0.35687998
-3.6139994 2.7322905 0.45687997
-3.6639993 2.8322906 0.30687997
-3.6139994 2.7822905 0.20687997
-3.5639994 2.7822905 0.20687997
-3.5639994 2.8322906 0.20687997
-3.6139994 2.7822905 0.25687999
-3.6139994 2.7822905 0.30687997
-3.5639994 2.7822905 0.25687999
-3.5639994 2.7822905 0.30687997
-3.5639994 2.8322906 0.25687999
-3.6139994 2.8822906 0.15687998
-3.6139994 2.8822906 0.20687997
-3.5639994 2.8822906 0.15687998
-3.5639994 2.8822906 0.20687997
-3.5639994 2.9322906 0.20687997
-3.6139994 2.8822906 0.30687997
-3.6139994 2.9322906 0.30687997
-3.5639994 2.8822906 0.25687999
-3.5639994 2.8822906 0.30687997
-3.6139994 2.7822905 0.40687999
-3.6139994 2.8322906 0.35687998
-3.5639994 2.7822905 0.40687999
-3.6139994 2.7822905 0.45687997
-3.6139994 2.8822906 0.35687998
-3.6139994 2.9322906 0.40687999
-3.5639994 2.9322906 0.40687999
-3.6139994 2.8822906 0.50687999
-3.5639994 2.8822906 0.45687997
-3.4639995 2.6322906 0.15687998
-3.4139993 2.5822906 0.15687998
-3.3639994 2.5822906 0.15687998
-3.3639994 2.5822906 0.25687999
-3.4139993 2.7322905 0.15687998
-3.4139993 2.7322905 0.25687999
-3.5139995 2.8322906 0.15687998
-3.4639995 2.8322906 0.20687997
-3.4639995 2.8822906 0.15687998
-3.4639995 2.8822906 0.20687997
-3.5139995 2.8822906 0.25687999
-3.5139995 2.9322906 0.30687997
-3.4139993 2.8322906 0.15687998
-3.4139993 2.8322906 0.25687999
-3.4139993 2.8822906 0.20687997
-3.4139993 2.9322906 0.20687997
-3.3639994 2.9322906 0.15687998
-3.3639994 2.8322906 0.40687999
-3.6639993 2.9822905 0.15687998
-3.6639993 2.9822905 0.20687997
-3.6639993 2.9822905 0.30687997
-3.6639993 3.0822906 0.30687997
-3.6139994 2.9822905 0.15687998
-3.5639994 3.0322905 0.15687998
-3.6139994 2.9822905 0.30687997
-3.5639994 2.9822905 0.25687999
-3.5639994 3.1322906 0.15687998
-3.6139994 3.0822906 0.25687999
